22.029167,2217.156982,-70.808327,25,32,54
33.690781,2213.535889,-70.733414,27,34,58
45.356274,2213.821289,-70.801750,92,97,124
57.021782,2214.106445,-70.870087,153,160,187
68.729813,2216.345947,-71.010300,162,167,195
80.775009,2230.311768,-71.582146,173,179,206
92.773773,2238.418701,-71.938950,168,174,203
104.926933,2248.480957,-72.368202,154,161,188
117.098526,2256.590820,-72.725952,88,100,129
129.351593,2264.701172,-73.084137,88,101,130
142.722687,2292.378418,-74.165337,66,75,105
173.218033,2609.448975,-85.942863,214,217,221
223.633942,3188.919678,-107.440842,205,208,208
241.003357,3198.794434,-107.889099,205,208,208
257.650848,3197.550537,-107.926079,205,208,208
275.025391,3205.733398,-108.312332,205,208,208
291.168854,3198.325195,-108.120781,204,207,207
307.583466,3194.860352,-108.075188,205,208,208
323.766663,3189.372314,-107.954231,205,208,208
339.891357,3183.910645,-107.833977,205,208,208
355.954681,3178.443604,-107.713211,205,208,208
371.956848,3172.974121,-107.592041,204,207,207
387.898071,3167.503906,-107.470551,204,207,207
403.781250,3162.056641,-107.349617,204,207,207
418.862518,3150.707031,-107.008278,204,207,207
434.843536,3147.168213,-106.957802,204,207,207
450.520477,3141.692627,-106.834808,203,206,206
466.139496,3136.237549,-106.712273,203,206,206
481.694519,3130.758789,-106.588554,203,206,206
497.188416,3125.278320,-106.464478,203,206,206
512.621277,3119.796387,-106.340027,203,206,206
527.993164,3114.312988,-106.215225,203,206,206
543.627991,3110.768311,-106.162819,203,206,206
557.878784,3099.418701,-105.817368,203,206,206
572.703064,3091.988525,-105.618469,203,204,205
588.154602,3088.440186,-105.565025,203,204,205
603.201111,3082.948730,-105.438309,202,205,205
618.186462,3077.455811,-105.311241,202,205,205
633.110901,3071.961182,-105.183815,201,204,204
647.977966,3066.483643,-105.056725,201,204,204
663.185303,3062.931152,-105.001915,202,203,204
677.936707,3057.432373,-104.873482,203,204,205
691.769043,3048.004883,-104.596428,202,203,204
706.378113,3042.502930,-104.467163,202,203,204
720.926270,3036.999512,-104.337532,202,203,204
735.413330,3031.494141,-104.207542,203,204,205
750.309021,3027.951904,-104.151566,203,204,204
765.159790,3024.390869,-104.094673,203,204,205
779.002930,3016.952637,-103.890617,203,204,205
793.751892,3013.389648,-103.833138,204,204,205
808.464661,3009.843018,-103.776093,204,205,206
821.058777,2998.449463,-103.420799,204,205,206
835.118713,2992.934082,-103.288307,202,205,205
849.653870,2989.365967,-103.229599,202,205,205
863.606689,2983.864502,-103.097107,202,205,205
878.050171,2980.294189,-103.037842,202,205,205
891.886292,2974.773438,-102.904068,203,206,206
906.243042,2971.218018,-102.844917,202,205,205
919.967346,2965.694336,-102.710480,203,206,206
933.630615,2960.169434,-102.575668,202,205,205
947.232849,2954.642578,-102.440491,203,206,206
959.534241,2945.192871,-102.155037,203,206,206
972.994019,2939.662354,-102.019020,202,205,205
987.668579,2938.038574,-102.032288,203,206,206
1001.031494,2932.520508,-101.896248,204,207,207
1014.328491,2926.986084,-101.759293,204,207,207
1028.233276,2923.406738,-101.697037,204,207,207
1041.423218,2917.883057,-101.559929,204,207,207
1055.240723,2914.314697,-101.497635,204,207,207
1068.314087,2908.775146,-101.359375,205,208,208
1079.898804,2899.292725,-101.069153,205,208,208
1093.553833,2895.720215,-101.005905,206,209,209
1106.433960,2890.176025,-100.866516,205,208,208
1119.258301,2884.643555,-100.727280,206,209,209
1132.765747,2881.054443,-100.662689,207,210,210
1146.237671,2877.477295,-100.598366,207,210,210
1159.663086,2873.885498,-100.533272,208,211,211
1172.274414,2868.348633,-100.392815,208,211,211
1185.614014,2864.768555,-100.327721,209,212,212
1197.296265,2857.226807,-100.109154,209,212,212
1210.534180,2853.644287,-100.043465,210,213,213
1222.905884,2848.087891,-99.901100,210,213,213
1236.052490,2844.503174,-99.834885,210,213,213
1248.318359,2838.958008,-99.692421,210,213,213
1261.367065,2835.356934,-99.625107,210,213,213
1274.375366,2831.755127,-99.557587,211,214,214
1286.484619,2826.219482,-99.414680,211,214,214
1299.407349,2822.629395,-99.347153,211,214,214
1310.488892,2815.073730,-99.125084,212,215,215
1322.409302,2809.519775,-98.980583,212,215,215
1334.262207,2803.950195,-98.835159,213,216,216
1346.974609,2800.340332,-98.765862,213,216,216
1359.660278,2796.758545,-98.697479,214,217,217
1372.298096,2793.161377,-98.628273,214,217,217
1384.895386,2789.563477,-98.558838,214,219,219
1396.484009,2783.987549,-98.411888,215,220,219
1408.989624,2780.386963,-98.341896,216,221,221
1421.454834,2776.785400,-98.271683,217,222,222
1431.881958,2769.227783,-98.046303,219,224,223
1444.245239,2765.624023,-97.975494,220,226,225
1455.549072,2760.041260,-97.826866,221,226,226
1468.839355,2758.392822,-97.832367,222,227,226
1481.079468,2754.783936,-97.760757,223,229,228
1492.242432,2749.219971,-97.612129,224,229,229
1504.392212,2745.610596,-97.540062,225,230,229
1515.446411,2740.048584,-97.390976,225,231,230
1527.489746,2736.409912,-97.317284,226,231,232
1536.253296,2726.887939,-97.011627,227,232,234
1548.201294,2723.276611,-96.938477,228,233,235
1557.891602,2715.710449,-96.709122,229,234,236
1569.713135,2712.052490,-96.633644,230,235,237
1584.042358,2712.857910,-96.734276,231,236,238
-2648.224121,4236.865234,-154.182526,104,78,46
-2625.925049,4237.822266,-154.330383,107,81,50
-2599.631592,4232.290527,-154.225830,104,80,49
-2579.208008,4236.280762,-154.491684,84,60,31
-2553.014404,4230.784180,-154.388077,34,37,41
-2525.888428,4223.621582,-154.219238,48,47,53
-2498.989990,4216.702637,-154.059494,118,119,119
-2467.379639,4201.635742,-153.581314,121,119,121
-2440.932861,4195.143066,-153.437225,122,121,120
-2408.236816,4177.696777,-152.864639,121,120,119
-2379.484863,4166.809082,-152.547638,127,126,126
-2352.671387,4159.124512,-152.355423,111,108,106
-2324.367432,4148.627441,-152.052628,106,105,102
-2297.846191,4141.124023,-151.866592,65,65,60
-2271.631836,4134.022949,-151.695923,62,64,59
-2243.499023,4123.252930,-151.380875,63,65,59
-2215.353516,4112.235352,-151.055511,61,63,58
-2187.324219,4101.205566,-150.729050,58,62,56
-2155.336426,4082.461914,-150.098694,61,65,58
-2129.613037,4075.280762,-149.922318,61,63,57
-2102.019775,4064.336182,-149.597366,61,63,59
-2076.428711,4057.053467,-149.416061,56,58,54
-2050.922363,4049.773682,-149.234451,61,63,59
-2023.653931,4038.822266,-148.907623,57,61,57
-1998.377808,4031.630127,-148.728622,68,72,66
-1971.284790,4020.577393,-148.396683,68,72,66
-1946.191650,4013.381104,-148.216614,70,74,68
-1915.607788,3994.604004,-147.578079,68,72,66
-1890.739014,3987.403320,-147.396729,70,74,67
-1865.950439,3980.198486,-147.214798,67,71,65
-1841.244019,3972.993164,-147.032471,68,72,66
-1814.843384,3961.925293,-146.696579,67,71,64
-1790.319214,3954.713623,-146.513092,113,118,117
-1765.876953,3947.501465,-146.329208,107,113,112
-1741.515503,3940.285400,-146.144760,141,144,144
-1717.236938,3933.071045,-145.960007,172,176,174
-1688.834595,3916.150879,-145.388657,168,169,168
-1664.768311,3908.927734,-145.202484,164,165,163
-1640.802734,3901.748535,-145.017685,163,164,163
-1616.113892,3892.640625,-144.755585,162,164,161
-1592.281616,3885.363281,-144.566010,158,160,156
-1567.764282,3876.198730,-144.300720,145,147,142
-1544.125488,3868.966797,-144.112106,53,57,65
-1519.830200,3859.869629,-143.848572,50,54,62
-1497.848145,3856.430908,-143.810822,80,85,93
-1475.934570,3853.062256,-143.775650,73,79,89
-1455.604858,3853.750977,-143.902771,79,83,89
-1438.834106,3863.938965,-144.410507,76,72,73
-1422.674561,3876.059326,-144.996231,179,142,96
-1403.525513,3880.310791,-145.266830,182,143,96
-1382.986694,3880.801270,-145.386673,183,144,96
-1361.785278,3879.418213,-145.431213,182,143,95
-1339.885742,3875.972900,-145.392822,180,141,93
-1317.404785,3870.712402,-145.281158,188,149,100
-1294.950439,3865.349365,-145.165100,189,150,100
-1269.984131,3852.243896,-144.736923,194,155,105
-1247.078369,3844.996094,-144.544113,196,157,107
-1224.253418,3837.744385,-144.350754,198,159,109
-1201.509766,3830.490723,-144.156921,209,171,122
-1178.847290,3823.235107,-143.962585,186,144,93
-1156.266235,3815.977051,-143.767776,186,144,93
-1133.766357,3808.716797,-143.572479,191,148,97
-1111.348022,3801.454834,-143.376724,193,150,99
-1089.023315,3794.232666,-143.182175,192,150,99
-1065.108032,3781.141846,-142.749542,192,149,98
-1042.963623,3773.871094,-142.552109,197,154,104
-1020.900635,3766.598633,-142.354172,200,157,106
-998.926941,3759.353760,-142.156967,203,160,109
-977.530579,3753.988525,-142.035706,204,161,110
-955.694946,3746.685059,-141.835388,202,159,109
-933.954834,3739.433838,-141.636810,207,165,114
-912.289246,3732.154541,-141.436661,200,158,107
-890.698120,3724.844727,-141.234909,192,147,95
-867.351685,3709.795166,-140.717499,193,148,96
-845.970947,3702.508545,-140.515686,193,149,97
-824.231018,3693.278076,-140.234207,194,149,98
-803.453308,3687.928467,-140.110596,192,148,98
-782.307800,3680.595459,-139.905701,186,143,92
-761.671631,3675.285156,-139.783051,188,145,94
-741.087524,3669.932129,-139.658371,189,146,95
-720.189575,3662.708984,-139.456909,190,147,94
-699.722351,3657.277100,-139.328339,187,151,108
-673.799255,3622.807861,-138.010086,79,69,63
-648.934509,3592.077637,-136.843323,131,127,124
-622.564941,3551.139893,-135.256302,67,71,76
-600.189697,3530.625244,-134.505310,67,69,75
-579.259888,3517.359375,-134.050919,247,246,245
-559.158875,3508.274414,-133.767609,205,203,200
-540.363159,3506.792480,-133.796402,206,203,199
-520.711060,3499.590576,-133.589783,207,205,201
-501.408325,3494.206543,-133.457596,207,205,201
-482.155914,3488.745605,-133.321976,209,206,202
-461.647949,3473.704590,-132.791199,209,207,203
-442.321747,3466.368896,-132.577408,209,207,203
-423.076691,3459.029541,-132.363052,210,208,204
-403.912964,3451.687744,-132.148224,210,208,204
-384.824463,3444.292969,-131.930801,209,207,203
-365.612793,3435.053223,-131.636688,211,209,205
-346.708618,3427.755127,-131.422440,211,209,205
-328.071564,3422.302246,-131.284164,211,209,205
-309.128479,3413.003906,-130.986313,212,210,206
-288.878784,3388.121338,-130.042130,213,211,207
-270.869598,3386.439209,-130.058746,212,210,206
-251.083618,3362.248291,-129.141266,212,210,206
-232.289047,3347.882812,-128.630493,212,210,206
-190.949661,3006.746094,-114.543594,35,32,39
-137.304779,2418.481934,-90.166527,11,16,29
-122.328583,2381.219971,-88.678391,19,24,39
-108.490761,2357.822998,-87.765427,20,24,40
-95.294983,2342.548340,-87.189514,19,25,42
-81.583153,2311.616699,-85.960381,17,22,41
-68.716576,2294.302246,-85.297447,20,27,45
-56.037956,2277.113525,-84.638878,14,21,41
-43.537758,2259.780518,-83.973396,3,5,14
-31.310413,2246.405762,-83.472389,8,11,24
-19.259174,2234.977295,-83.052010,29,37,58
-7.377151,2227.452148,-82.794289,26,33,56
4.423432,2219.926514,-82.536171,28,36,56
16.136229,2216.304443,-82.441101,31,38,60
27.801195,2210.689453,-82.262329,31,38,61
39.456520,2210.974609,-82.330612,184,194,219
51.139179,2213.212646,-82.480812,225,232,258
62.805458,2213.539307,-82.550880,169,177,205
74.613159,2219.644531,-82.863647,158,164,192
86.540504,2227.745605,-83.260567,171,177,206
98.549232,2235.850098,-83.658043,172,178,207
110.717499,2245.910400,-84.138184,120,128,156
122.899063,2254.017090,-84.536575,90,101,130
135.063522,2260.169189,-84.853020,57,65,94
172.480453,2719.489502,-104.270142,63,72,95
214.927505,3183.115479,-123.891876,205,208,208
232.309235,3193.905273,-124.427773,205,208,208
249.197937,3196.253418,-124.607742,205,208,208
266.855499,3208.406982,-125.202087,205,208,208
283.354523,3204.858887,-125.133247,205,208,208
299.647400,3199.407471,-124.983719,204,207,207
316.059265,3195.912842,-124.916695,205,208,208
332.052673,3188.525635,-124.684616,206,209,209
347.559204,3177.168701,-124.283951,204,207,207
363.579224,3171.724365,-124.133392,204,207,207
379.753906,3168.190918,-124.063591,205,208,208
395.659790,3162.722900,-123.911461,205,208,208
411.507538,3157.276855,-123.760017,204,207,207
427.288483,3151.781982,-123.606178,204,207,207
443.011292,3146.309326,-123.452980,204,207,207
458.676208,3140.858154,-123.300407,203,206,206
474.277008,3135.381836,-123.146484,203,206,206
489.233337,3125.985107,-122.825233,202,205,205
504.393158,3118.566895,-122.587845,203,206,206
520.085938,3115.004150,-122.514488,203,206,206
535.425659,3109.542480,-122.359901,203,206,206
550.697571,3104.038330,-122.203217,202,205,205
565.915405,3098.573486,-122.047905,202,205,205
581.068787,3093.086426,-121.891373,203,204,205
596.164795,3087.618164,-121.735321,202,205,205
611.196106,3082.127930,-121.578049,202,205,205
625.396057,3072.693115,-121.251564,201,204,204
640.284973,3067.199707,-121.093483,202,205,205
655.112854,3061.705078,-120.935036,201,204,204
669.883667,3056.227051,-120.777023,201,204,204
684.589600,3050.729248,-120.617859,201,204,204
699.664551,3047.174561,-120.541870,202,203,204
714.258545,3041.674072,-120.382065,202,203,204
728.795776,3036.190674,-120.222672,202,203,204
743.267761,3030.686768,-120.062134,202,203,204
757.199402,3023.199219,-119.815903,203,204,204
771.539185,3017.692627,-119.654594,202,205,205
785.822266,3012.201904,-119.493706,202,205,205
800.540894,3008.639404,-119.415642,201,204,204
814.707764,3003.128418,-119.253334,201,204,204
828.818237,2997.633789,-119.091415,203,206,206
843.394226,2994.067871,-119.012535,202,205,205
857.392761,2988.569336,-118.849930,202,205,205
871.877136,2985.001709,-118.770531,202,205,205
885.759155,2979.483887,-118.606544,202,205,205
898.427063,2970.031006,-118.271919,202,205,205
912.166687,2964.509766,-118.107094,202,205,205
925.845398,2958.986816,-117.941910,202,205,205
940.065125,2955.414062,-117.861015,202,205,205
953.636780,2949.904053,-117.695877,203,206,206
967.769836,2946.344727,-117.615120,203,206,206
981.229614,2940.831299,-117.449280,203,206,206
995.266357,2937.254395,-117.367332,203,206,206
1008.609436,2931.723633,-117.200211,203,206,206
1020.555237,2922.253418,-116.861343,203,206,206
1033.755859,2916.718750,-116.693359,205,208,208
1047.583740,2913.151611,-116.610817,204,207,207
1061.366577,2909.571045,-116.527481,205,208,208
1074.409058,2904.045410,-116.359108,205,208,208
1087.390625,2898.518311,-116.190399,206,209,209
1101.031006,2894.934082,-116.106216,206,209,209
1114.635132,2891.362061,-116.022385,206,209,209
1127.449341,2885.817871,-115.852150,206,209,209
1138.683105,2876.329834,-115.509087,206,209,209
1152.124756,2872.753662,-115.424301,207,210,210
1165.525391,2869.176270,-115.339256,207,210,210
1178.879639,2865.583252,-115.253334,208,211,211
1191.398804,2860.031738,-115.081367,209,212,212
1204.667236,2856.451416,-114.995552,209,212,212
1217.895142,2852.869873,-114.909500,209,212,212
1230.257812,2847.329590,-114.737244,209,212,212
1243.388184,2843.731689,-114.650009,210,213,213
1253.936646,2834.241455,-114.303558,209,212,212
1266.955078,2830.641113,-114.215706,209,212,212
1279.939087,2827.053711,-114.128235,210,213,213
1292.006592,2821.505127,-113.954178,211,214,214
1304.898926,2817.915771,-113.866188,211,214,215
1317.744141,2814.310791,-113.777313,212,215,217
1329.649292,2808.758301,-113.602310,213,216,216
1342.409424,2805.165283,-113.513527,213,216,216
1354.196533,2799.596191,-113.337280,213,216,216
1364.979614,2792.050049,-113.073364,213,216,217
1378.532349,2790.413086,-113.070328,214,217,217
1390.145874,2784.838867,-112.893005,214,219,218
1401.707031,2779.280762,-112.716118,215,220,219
1414.182495,2775.680908,-112.625671,216,222,221
1426.617065,2772.079834,-112.534973,218,223,222
1439.010986,2768.478271,-112.444031,218,224,223
1451.364380,2764.875488,-112.352875,219,225,224
1463.676880,2761.271484,-112.261452,221,226,225
1475.948853,2757.666504,-112.169807,222,227,227
1485.046997,2748.126709,-111.814262,223,228,227
1497.207031,2744.519287,-111.721954,224,229,231
1509.311646,2740.883057,-111.628197,224,229,231
1520.344971,2735.349365,-111.449768,225,230,232
1532.373047,2731.739014,-111.356720,226,231,233
1544.345337,2728.099854,-111.262169,227,231,233
1556.291870,2724.486816,-111.168625,228,233,235
1564.875610,2714.977539,-110.811859,229,234,236
1576.775513,2711.476562,-110.722763,230,235,237
1591.451050,2712.882080,-110.852570,230,237,238
-2659.824707,4235.502930,-176.643204,114,88,56
-2637.721924,4236.775391,-176.807190,106,80,50
-2615.587891,4238.010254,-176.969498,102,76,46
-2589.764160,4233.233887,-176.866104,96,70,40
-2568.697998,4236.198242,-177.104858,78,61,44
-2536.850098,4221.290039,-176.552643,31,33,41
-2510.187256,4214.797363,-176.372330,72,72,76
-2478.621826,4199.881836,-175.818451,123,122,123
-2452.295654,4193.629395,-175.647873,122,120,122
-2426.109619,4187.492188,-175.482101,120,119,119
-2397.293945,4176.658203,-175.107468,120,119,118
-2370.689697,4169.490234,-174.895111,111,109,106
-2342.005371,4158.491211,-174.512070,111,108,106
-2315.588379,4151.327148,-174.299026,70,69,66
-2282.846680,4132.588867,-173.570618,64,66,61
-2254.552246,4121.585449,-173.185593,62,64,59
-2226.370117,4110.562500,-172.799072,63,64,59
-2200.378174,4103.384277,-172.583359,62,64,59
-2172.423340,4092.361816,-172.195801,61,63,58
-2146.556641,4085.069580,-171.974091,60,62,56
-2118.883789,4074.152588,-171.590210,62,63,58
-2093.261719,4066.971680,-171.372604,60,62,58
-2067.667236,4059.683838,-171.149841,61,63,58
-2036.414673,4041.036133,-170.418716,54,56,51
-2011.049316,4033.751465,-170.195007,69,73,68
-1983.909668,4022.712158,-169.802826,68,72,66
-1956.931152,4011.749756,-169.413544,68,72,66
-1931.898926,4004.554688,-169.192474,69,73,66
-1906.911255,3997.280762,-168.967514,69,73,67
-1882.042236,3990.081787,-168.745514,68,72,66
-1855.484009,3979.098145,-168.353210,68,72,66
-1830.797607,3971.894531,-168.130142,68,72,66
-1802.659790,3956.965820,-167.559509,61,64,59
-1776.475464,3945.994385,-167.166046,106,112,111
-1752.050903,3938.687744,-166.936874,112,117,116
-1727.750977,3931.474609,-166.711533,177,180,178
-1703.532104,3924.259521,-166.485718,169,172,170
-1679.374756,3916.995605,-166.257309,167,168,167
-1655.319336,3909.777100,-166.030563,164,165,164
-1631.344360,3902.554199,-165.803238,162,163,162
-1607.471558,3895.379883,-165.577713,161,163,159
-1578.145386,3874.689941,-164.741318,155,157,151
-1554.487671,3867.465820,-164.512421,38,42,48
-1530.910400,3860.237305,-164.282959,49,55,62
-1508.174683,3854.938232,-164.140411,85,89,97
-1486.250977,3851.572266,-164.085068,76,81,90
-1466.592773,3854.014404,-164.292603,87,91,99
-1446.185669,3854.527588,-164.412811,82,86,91
-1428.696777,3862.878662,-164.888412,177,141,98
-1413.176514,3876.819824,-165.618027,181,143,95
-1393.380493,3879.335693,-165.829681,183,144,96
-1372.824463,3879.779297,-165.947296,181,142,94
-1350.245117,3874.459473,-165.803040,182,143,95
-1328.397583,3871.077393,-165.746567,186,147,99
-1305.275879,3863.832520,-165.514191,189,150,100
-1282.870361,3858.478760,-165.367508,191,152,102
-1259.921875,3851.292236,-165.137054,195,156,106
-1237.018921,3843.994629,-164.901169,196,157,107
-1214.214600,3836.747559,-164.667191,199,160,110
-1192.079346,3831.369873,-164.518097,182,140,90
-1166.453613,3814.487793,-163.843628,187,142,92
-1144.504028,3809.112305,-163.693771,191,148,97
-1122.055054,3801.853760,-163.457565,190,147,96
-1099.699707,3794.635010,-163.222809,185,142,92
-1077.411987,3787.368408,-162.985489,193,150,99
-1055.206055,3780.100830,-162.747726,194,151,101
-1033.609497,3774.737305,-162.596771,198,155,104
-1011.566040,3767.501221,-162.359711,199,156,105
-989.594543,3760.229492,-162.120667,203,160,109
-965.677673,3745.198242,-161.525330,204,161,110
-943.910095,3737.923340,-161.285156,204,161,110
-922.223816,3730.646484,-161.044495,209,169,117
-901.087891,3725.278564,-160.891190,192,148,96
-879.554321,3717.998047,-160.649643,192,147,95
-858.102173,3710.715332,-160.407623,193,149,97
-836.724121,3703.399414,-160.163681,194,150,98
-815.006226,3694.202637,-159.832779,188,143,91
-793.808533,3686.914795,-159.589325,190,145,95
-771.446899,3673.800293,-159.076935,189,146,95
-750.847473,3668.450195,-158.921890,187,144,93
-729.931030,3661.239502,-158.680756,187,144,93
-709.446411,3655.800049,-158.520996,187,145,93
-687.545715,3642.691895,-158.006729,128,113,97
-664.323669,3621.774658,-157.130890,115,110,107
-639.494751,3590.804932,-155.789230,68,70,74
-613.286377,3550.173096,-153.999008,68,70,76
-590.927856,3529.445068,-153.128036,110,111,114
-570.071594,3516.404541,-152.612045,206,204,201
-549.681396,3505.376221,-152.188629,206,204,199
-530.009277,3498.178223,-151.942215,206,204,200
-510.691223,3492.796143,-151.779648,208,206,201
-491.434082,3487.412109,-151.616730,208,206,201
-471.965515,3480.083984,-151.363220,209,207,203
-452.577820,3472.750488,-151.109100,209,207,203
-433.516266,3467.301514,-150.942184,210,208,204
-414.046844,3458.079346,-150.599487,210,208,204
-394.903137,3450.739990,-150.343933,210,208,204
-374.953491,3435.613770,-149.725464,210,208,204
-356.013367,3428.269775,-149.468719,211,209,205
-337.154633,3420.924072,-149.211548,211,209,205
-318.180237,3411.571777,-148.860382,212,210,206
-299.137634,3400.384766,-148.423141,213,210,206
-280.382843,3391.089111,-148.073624,213,211,207
-261.896576,3383.811768,-147.817902,212,210,206
-243.012268,3370.345215,-147.272552,213,211,207
-223.194229,3341.916504,-146.026962,129,128,128
-142.958649,2405.844238,-102.319878,17,21,34
-128.192993,2372.625732,-100.824936,17,22,36
-114.432327,2351.003662,-99.871399,14,20,36
-101.423042,2339.577637,-99.394508,15,22,38
-88.270828,2322.380615,-98.646500,13,19,36
-75.376389,2307.023193,-97.983925,15,22,41
-62.578171,2289.774414,-97.231819,15,23,41
-49.964989,2272.587891,-96.481773,2,5,24
-37.530647,2255.257812,-95.724129,9,12,30
-25.163530,2232.067627,-94.690170,23,29,49
-13.271524,2224.551025,-94.392151,21,28,49
-1.461320,2217.078369,-94.095810,25,33,53
10.251570,2213.458984,-93.980469,18,26,49
21.923763,2209.842529,-93.865082,16,23,46
33.567307,2208.175537,-93.841370,116,122,148
45.234371,2210.365723,-93.999443,96,102,131
56.889709,2210.652100,-94.067780,136,141,173
68.545837,2210.978271,-94.137993,190,197,225
80.568176,2224.855713,-94.848145,196,203,230
92.608910,2234.909912,-95.378319,101,107,137
104.751205,2244.963379,-95.908936,162,168,197
116.913765,2253.107666,-96.349724,86,95,125
129.062866,2259.256836,-96.696510,36,44,74
142.414337,2286.951904,-98.063660,56,67,97
196.484680,3009.574463,-132.350327,207,210,212
223.646133,3189.213867,-140.938339,206,209,209
240.744522,3194.951172,-141.289032,205,208,208
257.496613,3195.243896,-141.381653,205,208,208
275.032837,3205.483154,-141.946411,205,208,208
291.193542,3198.163330,-141.677719,205,208,208
307.612396,3194.631104,-141.588654,205,208,210
323.626160,3187.245605,-141.316193,205,208,210
339.943939,3183.720703,-141.226974,206,208,210
355.814667,3176.322266,-140.953247,204,207,208
372.030273,3172.792480,-140.863327,205,208,208
387.984619,3167.349854,-140.682068,204,207,207
403.875458,3161.882812,-140.499405,204,207,207
418.967468,3150.540771,-140.036285,204,207,207
434.958893,3147.006104,-139.945053,204,207,207
450.646179,3141.534180,-139.761200,204,207,207
465.999237,3134.124756,-139.484497,203,206,206
481.841034,3130.608398,-139.393433,202,205,205
497.345367,3125.131836,-139.208496,203,206,206
512.788696,3119.654297,-139.023209,203,206,206
528.171082,3114.175049,-138.837555,202,205,205
543.492371,3108.694336,-138.651550,202,205,205
557.740173,3097.331543,-138.183456,202,205,205
573.252930,3093.786865,-138.089539,202,205,205
588.374390,3088.321533,-137.903320,203,205,205
603.431213,3082.834229,-137.715759,202,205,205
618.427124,3077.345459,-137.527817,202,205,205
633.361938,3071.855225,-137.339554,202,205,205
648.235718,3066.363525,-137.150909,201,204,204
663.052246,3060.888428,-136.962799,201,204,204
678.218994,3057.337402,-136.866959,201,204,204
691.632996,3045.954834,-136.394012,201,204,204
706.677307,3042.400391,-136.297409,201,204,204
721.239990,3036.919678,-136.107819,203,204,204
735.737427,3031.418457,-135.916977,202,203,204
750.643555,3027.879150,-135.820450,202,204,204
765.029175,3022.375732,-135.628967,201,204,204
779.839478,3018.816895,-135.531067,201,204,204
794.117554,3013.328125,-135.339767,201,204,204
808.334778,3007.837891,-135.148087,201,204,204
821.445374,2998.398682,-134.765274,201,204,204
835.515808,2992.887451,-134.571945,202,205,205
850.061340,2989.322510,-134.472488,202,205,205
864.024597,2983.824951,-134.279312,202,205,205
877.922058,2978.309082,-134.084946,202,205,205
892.325073,2974.741455,-133.984695,202,205,205
906.110596,2969.223145,-133.789688,202,205,205
919.840027,2963.719482,-133.595093,202,205,205
934.100647,2960.148438,-133.494049,202,205,205
947.713135,2954.625488,-133.298004,202,205,205
960.020447,2945.167480,-132.910507,203,206,206
973.490662,2939.641357,-132.713638,202,205,205
987.542480,2936.081543,-132.612122,203,206,206
1000.900879,2930.552734,-132.414612,203,206,206
1014.202820,2925.036133,-132.217407,203,206,206
1028.107788,2921.458984,-132.114380,203,206,206
1041.976318,2917.894043,-132.011765,204,207,207
1055.111084,2912.359863,-131.812943,204,207,207
1068.888306,2908.793213,-131.709808,205,208,208
1080.483521,2899.317627,-131.318115,205,208,208
1093.424927,2893.778809,-131.118179,205,208,208
1107.039429,2890.208252,-131.014099,206,209,209
1119.874390,2884.680420,-130.814163,205,208,208
1133.392090,2881.093506,-130.708862,206,209,209
1146.874268,2877.519531,-130.603989,206,209,209
1159.541016,2871.973633,-130.402420,207,210,210
1172.931641,2868.397705,-130.297028,207,210,210
1186.275513,2864.804932,-130.190628,208,211,211
1197.175293,2855.327637,-129.795563,208,211,211
1210.407227,2851.732666,-129.688553,208,211,211
1223.604858,2848.151611,-129.582016,209,212,212
1235.925903,2842.597900,-129.378448,209,212,212
1249.037964,2839.029297,-129.272095,209,212,212
1262.097168,2835.431152,-129.164078,210,213,213
1274.261475,2829.887207,-128.960236,210,213,213
1287.229126,2826.286865,-128.851715,210,213,213
1299.281860,2820.739746,-128.647202,210,213,215
1309.479858,2811.243896,-128.247986,210,212,215
1323.184937,2809.599609,-128.235046,211,213,216
1335.054932,2804.048584,-128.029480,211,214,216
1347.784424,2800.455811,-127.920197,213,215,217
1360.473511,2796.862549,-127.810669,212,215,217
1373.114258,2793.252441,-127.700150,212,216,218
1385.721558,2789.656738,-127.590149,213,218,219
1398.288086,2786.059814,-127.479897,214,219,220
1409.836182,2780.486816,-127.271774,215,220,221
1422.311157,2776.887939,-127.160995,216,221,222
1431.759033,2767.376709,-126.757515,217,222,223
1444.122559,2763.775391,-126.646103,219,223,225
1456.445190,2760.172852,-126.534431,219,224,226
1468.727539,2756.569580,-126.422554,220,225,226
1480.968872,2752.965332,-126.310410,221,226,228
1493.156250,2749.334229,-126.196770,223,228,229
1504.270264,2743.776123,-125.987305,223,228,230
1516.379639,2740.168457,-125.874397,224,229,231
1528.448242,2736.560059,-125.761253,225,230,232
1537.205811,2727.015137,-125.352936,226,231,232
1549.181030,2723.437012,-125.240791,227,232,233
1558.882324,2715.877197,-124.930428,228,232,234
1569.691528,2710.416016,-124.724091,229,234,235
1584.203003,2711.538574,-124.845261,229,236,237
-2649.449707,4235.611816,-199.285370,109,83,51
-2628.017090,4237.978027,-199.507309,108,82,52
-2602.018799,4232.958008,-199.363708,102,78,48
-2580.754883,4235.600098,-199.599289,89,65,32
-2554.929199,4230.734863,-199.463028,34,33,39
-2526.848145,4222.009766,-199.135147,31,30,40
-2500.980957,4216.844727,-198.983368,121,120,121
-2469.177490,4201.489746,-198.325714,122,120,122
-2441.749023,4193.344238,-198.025162,121,120,122
-2410.656738,4178.696777,-197.401260,122,121,120
-2381.876221,4167.802734,-196.963135,121,120,119
-2355.306885,4160.592285,-196.707535,112,109,107
-2326.717041,4149.635742,-196.265274,113,110,108
-2300.361816,4142.474121,-196.011292,68,68,61
-2271.965820,4131.459473,-195.565094,62,64,57
-2243.806396,4120.653320,-195.128662,62,64,59
-2217.620850,4113.273926,-194.862564,62,64,59
-2189.571777,4102.253418,-194.414413,61,63,57
-2157.562744,4083.523193,-193.581116,60,62,56
-2131.816162,4076.344482,-193.323456,62,64,59
-2106.093262,4069.051758,-193.059708,60,62,57
-2078.593994,4058.137939,-192.614670,82,84,79
-2053.054688,4050.838867,-192.349762,64,66,61
-2025.776367,4039.917480,-191.903320,63,67,63
-2000.426514,4032.624756,-191.637863,71,74,70
-1973.365723,4021.687012,-191.189575,69,73,67
-1948.251831,4014.496338,-190.928391,69,73,67
-1917.646484,3995.732666,-190.086899,70,74,68
-1892.756714,3988.536865,-189.824417,70,74,67
-1867.903931,3981.245605,-189.556763,69,73,67
-1841.425537,3970.283203,-189.104507,70,74,68
-1816.798706,3963.078369,-188.840347,68,72,66
-1792.254517,3955.874023,-188.575836,110,112,111
-1767.791626,3948.667480,-188.310852,108,111,111
-1741.695190,3937.598633,-187.851273,123,128,128
-1717.415283,3930.387695,-187.585205,174,177,175
-1690.682983,3917.332031,-187.024597,167,168,167
-1666.596802,3910.116455,-186.757401,164,166,164
-1642.591675,3902.898438,-186.489700,163,165,163
-1617.882568,3893.798096,-186.126755,162,163,162
-1594.025879,3886.516602,-185.855057,159,160,157
-1568.726074,3875.487061,-185.393906,143,147,143
-1545.077759,3868.262939,-185.124252,52,56,64
-1521.510010,3861.034668,-184.854004,43,47,56
-1498.778564,3855.734619,-184.680817,79,85,92
-1476.137207,3850.509033,-184.511108,81,87,96
-1456.514160,3853.056152,-184.734207,79,83,88
-1439.013184,3861.317627,-185.246536,83,81,83
-1424.200073,3877.069092,-186.138382,181,143,97
-1405.076538,3881.440186,-186.454620,182,142,96
-1384.551025,3882.024170,-186.579147,184,145,97
-1363.307495,3880.580811,-186.600922,180,141,93
-1340.735962,3875.269531,-186.426422,180,140,93
-1318.243896,3870.010742,-186.254272,185,146,96
-1295.779663,3864.653564,-186.076874,190,151,101
-1270.820435,3851.611084,-185.508850,191,150,101
-1247.885986,3844.314453,-185.232132,195,154,105
-1225.050415,3837.068359,-184.957611,196,155,105
-1202.315430,3829.880859,-184.685699,197,156,107
-1179.640991,3822.626709,-184.410034,185,140,91
-1157.048706,3815.372559,-184.133957,184,139,89
-1134.537231,3808.114990,-183.857361,191,148,97
-1112.106201,3800.852051,-183.580093,194,151,101
-1090.307739,3795.484863,-183.399124,186,143,92
-1065.821411,3780.473389,-182.725937,193,150,99
-1043.667114,3773.210205,-182.447388,195,152,101
-1022.126343,3767.883057,-182.267334,200,157,107
-1000.124939,3760.616699,-181.987946,201,158,107
-978.716309,3755.286377,-181.807098,201,158,108
-956.867188,3748.015869,-181.526794,204,161,111
-934.615479,3738.833496,-181.148300,203,160,107
-912.939209,3731.559082,-180.867004,188,144,92
-891.344299,3724.282715,-180.585220,188,143,91
-867.526489,3707.306152,-179.806152,190,145,93
-846.588745,3701.933594,-179.620956,192,148,96
-825.271057,3694.616699,-179.335785,194,149,97
-804.050171,3687.365234,-179.053589,187,142,92
-782.482971,3678.138428,-178.669632,185,142,91
-761.837646,3672.791504,-178.484436,188,146,95
-741.268494,3667.516357,-178.302658,187,144,93
-720.748413,3662.184570,-178.117661,187,144,94
-700.291321,3656.862305,-177.932922,190,152,105
-673.911133,3620.079102,-176.129395,85,78,71
-648.695984,3587.475586,-174.539230,81,79,78
-622.729431,3548.754639,-172.632446,67,72,75
-600.644531,3529.925049,-171.748505,69,71,75
-579.418945,3514.976562,-171.063660,244,243,242
-559.633972,3507.828857,-170.780319,205,204,201
-540.519714,3504.405518,-170.688751,207,204,200
-521.150024,3499.051025,-170.497330,207,205,201
-501.840546,3493.691650,-170.305359,208,206,202
-482.590637,3488.322510,-170.112610,208,206,202
-462.072021,3473.293457,-169.420319,208,206,202
-442.727020,3465.900879,-169.122162,209,207,203
-423.479675,3458.629395,-168.829880,211,209,204
-404.068207,3449.347656,-168.433197,209,207,203
-385.206726,3443.906494,-168.234894,211,209,205
-366.195801,3436.569336,-167.938110,212,209,205
-347.270691,3429.273438,-167.643051,212,209,205
-328.230621,3420.034180,-167.246902,213,211,207
-309.281982,3410.691406,-166.844910,212,209,205
-289.208466,3387.785156,-165.738480,213,211,207
-270.192535,3374.417236,-165.126221,212,210,206
-252.476776,3375.491699,-165.263535,213,210,206
-231.822693,3337.367188,-163.363647,213,213,208
-151.897858,2441.331299,-116.853897,26,26,39
-135.526855,2387.505859,-114.113007,13,17,32
-121.282707,2360.088867,-112.743919,11,16,31
-107.965347,2344.495605,-111.989143,14,21,38
-95.017342,2333.079102,-111.451180,14,20,37
-81.346329,2302.192383,-109.897949,12,19,37
-68.522278,2284.949707,-109.054626,16,25,43
-55.881222,2267.701416,-108.210159,21,26,45
-43.477154,2252.392578,-107.466080,13,15,31
-31.278372,2238.966064,-106.819534,10,14,33
-19.291386,2229.503174,-106.379372,22,29,50
-7.406739,2220.090576,-105.941376,27,34,55
4.350258,2214.519287,-105.703751,7,14,37
16.042896,2210.901611,-105.568016,40,47,70
27.694677,2207.238037,-105.429710,111,116,143
39.339840,2207.522705,-105.497925,106,111,139
51.012222,2209.758301,-105.668327,165,172,197
62.668346,2210.085693,-105.738823,168,175,202
74.465622,2216.186523,-106.112000,181,189,216
86.324738,2222.330811,-106.487740,174,180,209
98.447266,2234.296143,-107.169205,201,210,235
110.614784,2244.347412,-107.750732,99,107,138
122.797607,2252.489014,-108.232445,60,72,101
134.961761,2258.635742,-108.609703,48,61,91
194.750381,3120.509521,-153.971970,211,216,222
214.277802,3172.624756,-156.787750,205,208,208
232.808273,3201.482666,-158.382294,205,208,210
249.184052,3195.913086,-158.165909,205,208,210
266.855408,3208.123047,-158.885574,205,207,209
283.211212,3202.699463,-158.676727,204,207,209
299.507538,3197.288818,-158.468292,206,208,211
315.916199,3193.757812,-158.358688,205,208,210
332.097565,3188.306885,-158.147614,205,207,209
347.617096,3176.981689,-157.626205,205,208,210
363.647461,3171.541016,-157.414978,204,207,209
379.832550,3168.011230,-157.304428,204,207,209
395.748779,3162.546631,-157.091431,204,207,208
411.366150,3155.147705,-156.775864,204,207,208
427.398438,3151.614990,-156.664444,204,207,208
443.134583,3146.168457,-156.451569,203,206,206
458.535675,3138.740967,-156.133530,204,207,207
474.136780,3133.269043,-155.918686,203,206,206
489.093445,3123.878662,-155.495926,203,206,206
504.552185,3118.403076,-155.280243,203,206,206
519.949829,3112.926025,-155.064224,203,206,206
535.286560,3107.447510,-154.847824,202,205,205
550.890991,3103.906250,-154.734009,202,205,205
566.119324,3098.445801,-154.518082,202,205,205
581.283203,3092.963379,-154.300705,202,205,205
596.385864,3087.478760,-154.082932,202,205,205
611.427612,3081.993408,-153.864838,201,204,204
625.258728,3070.624268,-153.333389,200,203,203
640.151672,3065.153809,-153.115402,201,204,204
654.979858,3059.662842,-152.896027,201,204,204
670.156982,3056.113281,-152.779831,200,203,203
684.873169,3050.619385,-152.559799,201,204,204
699.958374,3047.067383,-152.443054,201,204,204
714.566895,3041.589844,-152.223373,202,205,205
729.114441,3036.110107,-152.003311,202,205,205
743.592590,3030.592773,-151.780975,202,205,205
757.539124,3023.128662,-151.454361,201,204,204
771.889343,3017.626221,-151.232193,201,204,204
786.178467,3012.122070,-151.009674,201,204,204
800.911804,3008.580322,-150.891846,201,204,204
815.089111,3003.073486,-150.668671,201,204,204
829.209839,2997.582031,-150.446045,202,205,205
843.796265,2994.019531,-150.326462,201,204,204
857.800659,2988.508789,-150.102295,202,205,205
871.748596,2983.012451,-149.878616,202,205,205
885.630981,2977.498291,-149.653702,202,205,205
898.871094,2970.001221,-149.322128,202,205,205
912.039307,2962.534180,-148.991776,201,204,204
926.310181,2958.965088,-148.870407,202,205,205
939.942993,2953.460449,-148.644852,202,205,205
954.122314,2949.889404,-148.522964,202,205,205
967.638550,2944.366699,-148.295929,202,205,205
981.098450,2938.856934,-148.069305,202,205,205
995.135498,2935.282959,-147.946625,203,206,206
1008.483521,2929.770020,-147.719330,201,204,204
1020.429749,2920.305664,-147.278900,203,206,206
1034.304077,2916.728760,-147.155319,202,205,205
1047.458740,2911.210205,-146.926849,203,206,206
1061.241455,2907.632080,-146.802750,204,207,207
1074.988525,2904.065918,-146.679138,204,207,207
1087.975586,2898.529785,-146.448975,204,207,207
1101.630981,2894.961670,-146.324829,205,208,208
1114.506348,2889.422607,-146.094009,205,208,208
1128.070068,2885.852051,-145.969330,205,208,208
1139.314575,2876.371094,-145.524811,205,208,208
1152.766724,2872.797852,-145.399475,206,209,209
1166.177734,2869.223389,-145.273880,206,209,209
1178.758179,2863.677734,-145.041382,207,210,210
1192.077759,2860.101074,-144.915237,207,210,210
1205.350342,2856.507812,-144.788025,207,210,210
1217.774658,2850.973633,-144.555405,208,211,211
1230.955444,2847.378418,-144.427673,208,211,211
1243.267944,2841.841064,-144.194366,209,212,212
1254.655396,2834.300537,-143.852020,209,212,214
1267.690308,2830.717041,-143.724243,209,212,214
1280.684570,2827.133057,-143.596237,210,212,214
1292.762695,2821.588623,-143.361481,210,213,215
1305.659058,2817.987793,-143.232162,210,212,214
1317.625488,2812.440674,-142.996765,210,213,215
1330.430054,2808.837646,-142.866898,208,213,215
1343.207031,2805.261719,-142.738312,209,214,216
1355.004395,2799.697021,-142.501221,210,215,216
1365.790649,2792.140137,-142.155273,211,216,217
1378.416138,2788.562256,-142.025909,211,216,218
1390.993408,2784.967529,-141.895447,213,217,219
1402.548340,2779.379639,-141.656006,213,218,220
1415.042358,2775.799561,-141.525940,215,220,221
1426.502563,2770.243408,-141.287735,216,221,222
1438.896973,2766.644531,-141.156204,217,222,223
1451.241577,2763.026611,-141.023468,217,222,223
1463.554443,2759.425537,-140.891464,219,224,226
1475.826538,2755.823242,-140.759186,221,226,227
1485.955688,2748.240967,-140.408905,220,227,228
1498.139526,2744.661865,-140.277451,222,228,229
1509.219849,2739.106934,-140.037582,222,229,230
1521.298462,2735.499023,-139.904144,224,229,230
1533.337036,2731.891846,-139.770554,225,230,231
1544.241455,2726.307861,-139.528366,225,230,232
1557.276123,2724.645020,-139.501053,226,231,233
1565.871094,2715.143555,-139.043335,227,232,234
1577.690918,2711.486328,-138.906128,228,235,235
1591.483032,2711.336182,-138.961426,229,236,237
-2662.147461,4235.985352,-221.853683,110,85,52
-2638.872803,4235.407715,-221.924072,111,85,52
-2617.875244,4238.493652,-222.195053,103,77,46
-2591.970703,4233.618164,-222.029861,96,72,41
-2570.348877,4235.696289,-222.245667,76,57,31
-2539.061768,4221.751953,-221.582611,35,35,42
-2513.375244,4216.930176,-221.419495,55,53,58
-2481.007080,4200.715332,-220.630615,122,121,122
-2454.593262,4194.352539,-220.382065,122,120,122
-2428.538818,4188.479980,-220.160156,121,120,120
-2399.689941,4177.631836,-219.664383,120,119,118
-2372.772461,4169.957520,-219.342636,114,113,111
-2346.287842,4162.893066,-219.054062,114,111,109
-2317.718750,4151.957520,-218.551987,77,77,74
-2285.025146,4133.354004,-217.627121,67,67,62
-2256.844238,4122.602539,-217.133942,67,69,63
-2228.648193,4111.600098,-216.626373,67,67,62
-2202.638672,4104.433105,-216.329788,63,65,60
-2174.659912,4093.413818,-215.820282,67,69,64
-2148.759277,4086.101562,-215.514862,63,65,61
-2121.079346,4075.218750,-215.011902,65,67,63
-2095.369141,4067.913086,-214.705978,60,62,58
-2067.905518,4057.013428,-214.201096,65,67,61
-2036.598022,4038.273926,-213.262207,59,61,56
-2011.280518,4031.090820,-212.961609,71,75,69
-1986.042603,4023.902344,-212.660324,71,75,69
-1959.001587,4012.863525,-212.145569,72,76,70
-1933.948608,4005.674316,-211.843414,71,75,69
-1908.926880,3998.377930,-211.534973,70,74,68
-1882.260010,3987.433105,-211.023926,70,74,68
-1857.471436,3980.237549,-210.720245,70,74,68
-1832.764282,3973.039551,-210.416061,68,72,65
-1802.840088,3954.266113,-209.469086,62,65,60
-1778.356812,3947.062744,-209.163589,108,111,109
-1753.954834,3939.857422,-208.857620,109,113,113
-1729.634155,3932.650146,-208.551193,180,183,181
-1705.371094,3925.386719,-208.241272,168,171,169
-1680.404053,3916.297607,-207.829453,166,167,166
-1656.338379,3909.085693,-207.521606,163,165,163
-1632.331543,3901.818359,-207.210297,161,163,161
-1608.449585,3894.652588,-206.904312,159,161,159
-1579.851685,3875.781250,-205.945786,155,156,153
-1556.198608,3868.623779,-205.639252,36,41,45
-1532.598999,3861.396240,-205.328430,49,54,61
-1509.814941,3856.030029,-205.121094,88,92,99
-1487.148682,3850.807129,-204.921463,77,83,92
-1467.508057,3853.319092,-205.153412,72,76,84
-1447.054077,3853.735352,-205.268417,80,85,90
-1429.553467,3862.075684,-205.826157,171,139,102
-1414.062622,3876.112305,-206.702759,181,142,94
-1394.888672,3880.372803,-207.033234,183,143,96
-1373.691162,3879.073242,-207.052795,178,139,91
-1351.100464,3873.754883,-206.847351,182,143,95
-1328.573608,3868.443115,-206.641983,184,145,96
-1306.093872,3863.087891,-206.433929,190,151,101
-1283.693848,3857.785400,-206.228546,190,151,101
-1260.716919,3850.549561,-205.914490,194,153,103
-1238.430542,3845.187256,-205.705124,196,155,106
-1215.605591,3837.945312,-205.390030,199,158,109
-1192.272827,3828.826416,-204.969223,182,139,89
-1167.805176,3815.707031,-204.323273,187,142,92
-1145.279785,3808.507080,-204.009262,186,142,90
-1122.804688,3801.202637,-203.689026,195,152,101
-1100.438843,3793.989258,-203.373535,191,148,98
-1078.687012,3788.626465,-203.161789,189,146,95
-1056.461670,3781.368408,-202.843109,195,152,101
-1034.326660,3774.141113,-202.525787,194,151,101
-1012.263428,3766.877197,-202.206039,200,157,106
-990.790100,3761.518555,-201.993301,206,163,112
-966.860596,3746.529297,-201.237381,201,158,107
-945.064453,3739.229736,-200.914383,203,160,108
-923.365173,3731.988525,-200.594330,206,163,111
-901.732361,3724.685791,-200.270447,191,147,95
-880.188293,3717.410889,-199.947739,191,146,94
-858.269714,3708.194092,-199.515015,190,145,93
-836.898499,3700.914795,-199.191299,194,149,97
-815.608643,3693.633545,-198.867111,189,145,93
-794.400269,3686.350586,-198.542480,186,143,92
-771.626282,3671.369141,-197.781845,185,142,92
-751.434998,3667.981201,-197.676773,178,135,84
-730.868530,3662.549316,-197.455780,181,140,88
-709.996216,3655.260254,-197.129303,184,142,90
-688.040588,3641.932861,-196.460205,77,65,52
-664.750183,3620.718506,-195.343262,82,76,69
-639.602783,3588.072021,-193.576797,66,68,72
-613.791382,3549.710938,-191.484497,68,70,76
-591.418701,3528.979248,-190.391235,101,102,104
-570.252991,3514.156006,-189.632568,205,204,201
-550.132263,3504.812744,-189.184509,206,204,200
-530.738831,3499.468018,-188.963318,206,204,200
-511.141663,3492.369141,-188.642105,207,205,201
-491.862762,3486.912109,-188.413925,208,206,202
-472.384979,3479.595459,-188.079620,208,206,202
-452.743378,3470.463135,-187.641602,209,207,203
-433.680054,3465.009521,-187.412659,210,208,204
-414.444641,3457.677246,-187.076416,210,207,203
-395.284149,3450.291260,-186.736725,210,208,204
-375.329926,3435.228027,-185.958862,211,209,205
-356.379272,3427.889648,-185.620956,211,209,205
-337.313416,3418.652588,-185.174347,212,210,205
-317.962128,3405.483154,-184.502747,212,210,206
-298.928497,3394.193359,-183.937897,214,212,208
-280.023590,3382.970459,-183.376297,213,210,206
-261.063019,3369.597168,-182.691238,213,211,207
-243.979340,3378.590576,-183.284729,212,211,208
-222.397354,3326.537598,-180.385818,23,21,31
-141.471970,2380.396240,-126.307739,13,17,33
-127.197906,2353.167480,-124.804611,12,17,32
-113.879852,2337.756592,-123.977188,10,17,33
-101.028229,2328.234619,-123.486519,12,18,35
-88.013725,2312.948730,-122.664948,14,19,38
-75.082573,2295.715332,-121.730949,18,24,43
-62.334385,2278.476807,-120.795815,20,28,46
-49.828339,2263.177734,-119.971222,9,12,28
-37.485016,2247.874512,-119.145660,6,8,26
-25.148624,2224.761719,-117.870728,18,26,46
-13.286387,2217.243652,-117.490952,-1,1,22
-1.542266,2213.575195,-117.332153,32,40,58
10.160377,2209.960205,-117.176247,45,52,77
21.824099,2208.295166,-117.132347,114,122,146
33.467484,2206.629150,-117.088318,180,190,213
45.112064,2206.864014,-117.153671,178,185,211
56.757812,2207.200195,-117.224846,147,152,184
68.445328,2209.436768,-117.405540,162,169,200
80.468987,2223.384521,-118.261574,148,154,185
92.508232,2233.393311,-118.891045,126,133,165
104.650085,2243.440186,-119.523155,154,163,193
116.807602,2251.468994,-120.039207,67,77,107
129.048309,2259.549316,-120.558624,104,119,149
143.364563,2305.280273,-123.253571,127,135,155
206.079849,3174.786621,-173.561600,206,209,209
223.011917,3179.309814,-173.897217,205,208,210
241.388504,3204.273682,-175.415359,205,208,210
257.642944,3197.011719,-175.069870,205,208,210
274.738831,3201.415283,-175.399338,205,208,210
291.050201,3196.004150,-175.160599,205,208,210
307.469299,3192.475586,-175.030655,204,207,209
323.666016,3187.026855,-174.789215,205,208,210
339.996277,3183.527344,-174.660568,204,207,209
356.080505,3178.068848,-174.418091,205,207,209
372.103485,3172.607422,-174.175171,205,208,210
388.068298,3167.168945,-173.933319,205,207,210
403.969482,3161.706055,-173.689774,204,207,209
419.072205,3150.372559,-173.104904,204,207,209
434.820984,3144.906006,-172.860474,203,206,208
450.508667,3139.438232,-172.615692,203,206,207
466.135315,3133.968750,-172.370560,203,206,206
481.984253,3130.433594,-172.237686,202,205,205
497.498962,3124.961670,-171.991898,203,206,206
512.952698,3119.488525,-171.745773,202,205,205
528.031677,3112.076172,-171.386398,203,206,206
543.677002,3108.537109,-171.252411,203,206,206
557.938965,3097.203369,-170.663773,201,204,204
573.118225,3091.722900,-170.416016,202,205,205
588.236206,3086.240967,-170.167892,201,204,204
603.297180,3080.777832,-169.920593,201,204,204
618.667480,3077.232422,-169.785004,201,204,204
633.612854,3071.746582,-169.535889,200,203,203
648.497131,3066.259033,-169.286407,201,204,204
663.320312,3060.770020,-169.036545,200,203,203
678.082397,3055.279785,-168.786362,201,204,204
691.925720,3045.865234,-168.306305,201,204,204
706.545593,3040.371582,-168.055283,201,204,204
721.108521,3034.894287,-167.804947,201,204,204
736.061462,3031.340576,-167.667038,201,204,204
750.508362,3025.842529,-167.414978,202,205,205
765.373962,3022.304688,-167.277603,202,205,205
779.708984,3016.803711,-167.024902,202,205,205
793.987427,3011.318848,-166.772873,201,204,204
808.706299,3007.760498,-166.633636,202,205,205
821.827332,2998.328613,-166.149368,201,204,204
835.908203,2992.821533,-165.895157,202,205,205
849.932495,2987.329590,-165.641586,201,204,204
864.442322,2983.782959,-165.502121,202,205,205
878.350159,2978.271240,-165.246887,202,205,205
892.196960,2972.758057,-164.991302,202,205,205
906.559570,2969.192383,-164.850082,202,205,205
920.294556,2963.677002,-164.593857,202,205,205
933.973328,2958.175293,-164.338196,202,205,205
948.193298,2954.606201,-164.196136,202,205,205
960.511108,2945.155029,-163.707169,201,204,204
973.991882,2939.632812,-163.449448,202,205,205
987.411438,2934.109375,-163.191376,202,205,205
1000.774841,2928.599121,-162.933792,203,206,206
1014.735474,2925.039307,-162.791122,202,205,205
1028.650391,2921.464355,-162.647369,203,206,206
1041.846436,2915.935791,-162.388000,203,206,206
1055.674683,2912.373047,-162.244537,203,206,206
1068.763672,2906.855225,-161.985321,203,206,206
1081.062988,2899.326416,-161.606888,204,207,207
1094.025146,2893.819580,-161.347733,204,207,207
1107.644653,2890.237305,-161.202255,204,207,207
1121.223389,2886.653809,-161.056503,205,208,208
1134.018066,2881.129883,-160.795609,205,208,208
1147.510498,2877.558594,-160.650192,205,208,208
1160.962402,2873.986572,-160.504517,205,208,208
1174.367310,2870.397461,-160.357697,205,208,208
1186.942993,2864.853760,-160.094696,207,210,210
1197.853271,2855.383545,-159.598358,207,210,210
1211.095337,2851.791016,-159.450592,207,210,210
1223.484131,2846.257812,-159.187378,208,211,213
1236.641235,2842.678467,-159.040009,209,212,214
1249.751221,2839.083740,-158.891510,208,211,213
1262.826904,2835.502686,-158.743668,208,211,213
1274.995850,2829.948975,-158.478271,209,212,214
1287.979858,2826.365723,-158.329910,209,212,214
1300.042969,2820.823242,-158.064697,209,212,214
1311.135254,2813.278076,-157.679947,210,213,215
1323.066528,2807.732178,-157.413956,209,213,215
1335.847168,2804.143555,-157.264374,209,214,215
1347.666992,2798.595947,-156.997787,209,214,215
1360.349121,2794.990234,-156.846756,209,213,215
1372.997681,2791.398438,-156.696411,210,214,216
1385.605469,2787.806152,-156.545822,211,216,218
