-1280.549438,4041.741943,-498.864502,178,137,86
-1258.031860,4036.858643,-498.283813,179,139,87
-1235.564697,4031.938965,-497.698090,183,142,91
-1213.169678,4027.050537,-497.116333,181,141,90
-1188.482666,4014.483887,-495.511688,189,149,97
-1166.250000,4009.587402,-494.928345,189,148,97
-1143.520020,4002.801514,-494.092957,189,150,98
-1121.410156,3997.867188,-493.504120,192,153,103
-1099.371094,3992.963867,-492.919159,175,132,84
-1077.392822,3988.057373,-492.333557,173,132,83
-1054.948853,3981.227783,-491.491455,174,133,83
-1033.094604,3976.285400,-490.900665,166,125,76
-1010.811218,3969.479736,-490.061218,163,121,74
-987.591370,3958.731201,-488.695740,158,119,71
-965.967712,3953.802490,-488.105988,155,115,70
-943.936462,3946.978516,-487.263275,153,115,69
-922.442261,3942.032471,-486.670807,148,110,66
-901.459595,3938.984863,-486.331299,148,110,65
-879.616150,3932.041260,-485.471893,144,107,62
-857.399231,3923.079590,-484.342926,142,105,63
-833.555847,3906.282959,-482.167908,62,63,66
-808.830383,3884.522461,-479.329590,61,63,68
-771.290161,3800.673828,-468.201508,99,100,103
-749.601257,3789.768555,-466.809967,191,189,185
-728.828064,3782.825195,-465.947021,190,188,184
-707.812500,3774.209717,-464.860504,190,187,183
-687.578552,3769.200684,-464.255341,192,190,185
-667.737244,3765.992188,-463.890594,193,190,186
-646.618469,3755.381836,-462.536682,193,191,187
-626.595154,3750.401855,-461.934753,194,192,187
-606.979370,3747.485352,-461.608368,195,193,189
-585.852417,3735.022949,-460.006012,196,194,190
-571.206909,3762.914062,-463.797577,196,194,190
-405.487061,2797.663330,-334.809845,184,168,161
-372.192047,2666.285400,-317.289276,137,85,61
-354.901031,2638.325195,-313.594330,177,114,85
-340.991577,2633.020264,-312.928467,210,145,114
-326.876465,2625.665527,-311.988281,169,117,94
-312.883942,2618.621826,-311.089417,13,-3,-5
-299.415527,2615.274414,-310.684845,34,35,36
-285.311157,2606.028320,-309.490784,39,41,44
-269.858673,2583.525879,-306.522186,18,21,25
-256.237946,2576.263428,-305.592712,47,51,55
-242.897552,2571.001953,-304.930878,65,69,73
-229.612885,2565.682617,-304.261017,20,24,29
-216.227737,2558.527588,-303.345215,61,65,71
-203.237488,2555.147949,-302.934723,25,29,35
-190.140747,2549.871094,-302.270020,62,68,73
-177.104706,2544.587891,-301.604187,101,109,116
-164.521103,2545.114746,-301.716644,91,98,105
-151.816879,2543.698242,-301.568665,60,64,72
-139.243546,2544.225098,-301.681061,36,40,48
-126.672882,2544.803711,-301.800385,33,37,44
-114.186790,2547.219727,-302.166016,34,36,44
-101.685104,2549.739014,-302.545532,56,60,69
-89.228149,2554.091553,-303.170959,64,69,78
-76.732826,2558.500732,-303.804138,91,98,106
-64.198448,2562.974609,-304.446075,112,120,126
-51.660545,2569.333740,-305.341034,77,84,92
-39.176640,2583.458252,-307.277954,65,71,80
-26.494547,2591.757568,-308.433746,97,105,111
-13.739101,2601.879639,-309.834473,100,106,113
-0.885024,2610.111328,-310.981750,112,118,125
12.062453,2620.454102,-312.412689,127,133,139
25.155039,2634.553223,-314.348206,231,227,229
38.357944,2646.758301,-316.029938,112,71,52
51.682968,2658.977783,-317.713959,192,129,100
64.964767,2665.089111,-318.578125,245,175,146
78.380348,2673.543457,-319.757202,256,184,151
120.907509,3456.882568,-425.022705,219,213,212
141.201370,3527.954102,-434.627808,210,213,215
159.568085,3543.471680,-436.771149,210,213,215
176.983856,3538.182861,-436.119171,209,211,213
195.342148,3550.135010,-437.784027,208,211,213
212.603607,3542.981934,-436.881317,208,211,213
229.923416,3537.874756,-436.253296,209,212,214
247.458771,3536.507080,-436.127991,208,210,212
264.682190,3531.474854,-435.509735,207,210,212
281.507355,3522.430908,-434.351807,207,210,212
298.931427,3521.214111,-434.246277,206,209,211
316.147125,3518.011475,-433.873566,207,210,212
333.325500,3514.845947,-433.505707,206,209,211
350.463379,3511.679443,-433.137604,206,209,211
367.347870,3506.582764,-432.509583,206,209,209
384.168610,3501.457520,-431.877563,206,209,209
401.163910,3498.283691,-431.507935,206,209,209
418.116089,3495.088135,-431.135315,206,209,209
434.261963,3486.048340,-429.975708,206,209,209
451.104828,3482.869629,-429.604980,206,209,209
467.630493,3477.733398,-428.970520,206,209,209
484.381805,3474.551025,-428.598907,206,209,209
500.795654,3469.410156,-427.963470,206,209,209
517.151550,3464.286133,-427.330017,205,208,208
533.760498,3461.097900,-426.957245,206,209,209
550.328857,3457.907715,-426.584076,205,208,208
566.856384,3454.715820,-426.210480,205,208,208
582.300537,3445.646240,-425.044586,205,208,208
598.712585,3442.429688,-424.667328,205,208,208
614.723267,3437.292236,-424.030975,205,208,208
631.039551,3434.051025,-423.650085,206,209,209
647.322754,3430.848389,-423.274292,206,209,209
663.171021,3425.704590,-422.636505,206,209,209
679.362793,3422.498291,-422.259918,205,208,208
695.509521,3419.270020,-421.880219,206,209,209
711.195251,3414.118652,-421.240936,208,209,209
725.937317,3405.019531,-420.068695,207,208,209
741.476318,3399.842285,-419.425354,207,208,209
757.413879,3396.625244,-419.046509,208,208,209
773.315002,3393.425537,-418.669861,207,208,209
788.691223,3388.240723,-418.025055,207,208,209
804.492004,3385.000000,-417.642517,207,208,209
820.256470,3381.775635,-417.262024,207,208,209
835.980286,3378.549561,-416.881256,208,209,210
851.142822,3373.356201,-416.234558,208,209,210
866.775024,3370.126465,-415.852997,208,209,210
881.284912,3362.961426,-414.939545,208,209,210
896.268738,3357.775879,-414.293304,208,209,210
911.743958,3354.524170,-413.908234,209,210,211
927.182983,3351.286133,-413.524872,209,210,211
942.581116,3348.046631,-413.141174,208,209,210
957.347107,3342.836670,-412.490967,209,210,210
972.653687,3339.593018,-412.106384,209,210,210
987.915344,3336.333740,-411.719635,208,209,210
1003.140686,3333.086914,-411.334381,208,209,210
1016.432495,3323.940674,-410.151031,208,209,209
1030.907593,3318.731201,-409.499939,208,209,210
1046.614380,3317.422607,-409.376343,208,209,210
1061.646362,3314.167725,-408.989380,208,209,210
1075.968994,3308.951904,-408.336945,208,211,211
1090.909424,3305.692871,-407.949097,208,211,211
1105.809204,3302.432373,-407.560944,208,211,211
1120.668335,3299.169922,-407.172394,208,211,211
1134.777588,3293.944580,-406.517914,208,211,211
1148.092529,3286.717041,-405.592072,208,211,211
1162.798950,3283.448242,-405.202179,208,211,211
1177.464844,3280.177734,-404.811951,208,211,211
1191.340088,3274.941895,-404.155273,209,212,212
1205.909790,3271.655518,-403.762573,209,212,212
1220.443481,3268.379639,-403.371124,209,212,212
1234.936401,3265.101807,-402.979309,209,212,212
1249.388428,3261.822754,-402.587158,209,212,212
1263.800049,3258.541504,-402.194580,209,212,212
1276.539917,3251.302246,-401.265289,210,213,213
1290.023926,3246.038086,-400.603607,210,213,213
1305.112793,3244.715576,-400.476135,210,213,213
1319.340820,3241.426514,-400.081879,212,214,217
1333.528320,3238.135254,-399.687256,212,214,216
1346.815796,3232.878662,-399.025848,212,215,217
1360.911987,3229.584229,-398.630463,212,215,217
1374.967529,3226.288330,-398.234741,212,215,217
1388.982300,3222.990234,-397.838654,212,215,217
1400.243896,3213.763428,-396.637726,212,215,217
1414.147095,3210.461670,-396.240753,212,215,217
1428.009766,3207.157959,-395.843323,213,215,217
1441.822021,3203.832275,-395.442810,213,216,216
1455.602783,3200.524902,-395.044617,213,216,216
1469.342773,3197.215088,-394.646057,214,217,217
1483.042358,3193.904053,-394.247131,214,217,217
1496.690186,3190.569336,-393.844849,213,218,217
1509.342773,3185.315674,-393.181732,212,218,217
1522.898560,3181.976074,-392.778503,213,219,218
1534.408325,3174.686523,-391.838409,213,219,218
1546.855835,3169.380371,-391.167603,213,219,218
1561.276245,3167.999512,-391.030121,213,219,218
1574.684326,3164.721680,-390.634674,213,219,218
1589.078369,3163.385986,-390.503143,214,219,219
1602.392700,3160.061035,-390.101105,214,217,217
1615.666504,3156.735107,-389.698730,207,209,208
1626.680298,3149.318604,-388.739990,191,191,187
1637.802856,3142.248291,-387.828064,243,248,245
1657.133545,3150.164307,-388.954468,244,250,247
-2742.782715,4310.313965,-552.600403,36,36,43
-2719.666016,4310.150391,-552.649109,71,71,74
-2701.974121,4318.352539,-553.847778,133,132,133
-2674.961914,4312.150879,-553.066406,131,130,132
-2658.062988,4321.726562,-554.454224,132,131,133
-2626.488037,4308.176758,-552.662048,134,133,135
-2601.851562,4305.472168,-552.361145,136,135,135
-2574.867188,4298.913574,-551.529846,139,137,138
-2547.942627,4292.316406,-550.693054,141,139,141
-2521.111084,4285.736328,-549.858337,141,140,141
-2494.492676,4279.373535,-549.053223,143,141,143
-2467.768799,4272.698242,-548.204956,143,143,144
-2441.001709,4265.809082,-547.326965,145,145,146
-2414.460205,4259.157715,-546.481445,146,147,148
-2385.704346,4248.551758,-545.091125,150,150,151
-2359.352783,4241.903809,-544.245483,151,152,153
-2333.156982,4235.382324,-543.416992,153,154,154
-2304.886230,4225.041016,-542.062134,153,154,155
-2280.842285,4222.040039,-541.718018,155,156,155
-2254.806641,4215.362793,-540.867310,156,157,158
-2228.853027,4208.683105,-540.015930,158,159,160
-2203.034668,4202.099609,-539.177673,159,160,161
-2177.240967,4195.409180,-538.324280,159,160,161
-2149.458008,4184.820312,-536.933411,160,161,162
-2123.849121,4178.125000,-536.078857,160,162,161
-2098.322510,4171.426758,-535.223633,161,163,161
-2072.877686,4164.726074,-534.367920,163,164,163
-2047.551880,4158.096191,-533.521484,162,164,162
-2024.149170,4155.117188,-533.178406,163,165,163
-1998.927368,4148.405762,-532.320435,167,168,167
-1973.786865,4141.690918,-531.461731,166,167,166
-1948.727783,4134.972656,-530.602295,166,167,165
-1921.911865,4124.440918,-529.216370,169,168,167
-1895.249878,4113.970703,-527.838562,168,168,167
-1872.240356,4110.983887,-527.493164,168,167,167
-1847.525635,4104.247559,-526.630188,168,167,167
-1822.891724,4097.506836,-525.766174,166,165,163
-1798.338867,4090.762207,-524.901489,158,158,155
-1773.868652,4084.016357,-524.036377,105,107,107
-1752.741333,4084.606689,-524.184021,57,61,71
-1730.197876,4081.964111,-523.885193,60,63,72
-1714.171631,4094.265381,-525.650513,94,98,106
-1698.037476,4106.604492,-527.421326,47,52,63
-1681.796631,4118.985352,-529.198303,99,100,104
-1662.232544,4123.700195,-529.916382,152,130,108
-1641.060303,4124.610352,-530.108948,180,142,94
-1618.326294,4121.678711,-529.770325,180,141,93
-1597.162354,4122.558594,-529.958496,178,139,91
-1572.980957,4115.811035,-529.092224,176,137,87
-1550.329102,4112.771484,-528.738403,178,139,89
-1526.328613,4106.116211,-527.884399,179,140,90
-1500.916748,4095.526123,-526.486023,181,142,92
-1477.058472,4088.759521,-525.616028,187,148,98
-1454.691162,4085.812012,-525.274292,191,152,102
-1430.974731,4079.037109,-524.402710,191,152,102
-1407.339478,4072.258545,-523.530396,196,157,107
-1385.119385,4069.260498,-523.181091,180,138,87
-1361.659424,4062.569580,-522.320435,180,137,87
-1338.886719,4057.652100,-521.705017,181,139,88
-1316.820801,4054.650391,-521.354675,181,138,87
-1291.641724,4042.112793,-519.684021,177,137,85
-1268.498535,4035.387451,-518.817627,182,139,89
-1246.015015,4030.468018,-518.201050,177,136,85
-1223.593750,4025.548340,-517.584290,181,140,89
-1200.660767,4018.773926,-516.710449,182,142,90
-1178.382324,4013.882080,-516.097046,189,149,97
-1156.164429,4008.987061,-515.483093,189,148,97
-1134.007812,4004.089355,-514.868530,189,149,98
-1111.359619,3997.269287,-513.987488,178,137,86
-1087.707397,3986.604736,-512.573242,174,133,84
-1065.765625,3981.665039,-511.952148,174,133,84
-1043.885986,3976.726074,-511.331024,172,131,82
-1021.572021,3969.924316,-510.451385,169,128,79
-999.824707,3964.979248,-509.829041,162,121,74
-977.654724,3958.138184,-508.943512,159,120,72
-956.046448,3953.212646,-508.323364,151,112,66
-934.498596,3948.281250,-507.702301,150,113,67
-913.009521,3943.338135,-507.079315,150,112,68
-890.181274,3932.416748,-505.626740,147,109,65
-867.918945,3923.417969,-504.440613,144,106,62
-843.639832,3904.933838,-501.937744,126,96,61
-818.624207,3882.132812,-498.835083,60,63,67
-790.759338,3844.774414,-493.710938,62,64,70
-762.514343,3803.626953,-488.059509,247,246,246
-740.892029,3792.994873,-486.643585,190,188,184
-719.413147,3782.473145,-485.242554,191,188,184
-698.745056,3775.550049,-484.340942,192,190,185
-678.515808,3770.540283,-483.704803,192,190,186
-656.629700,3756.041016,-481.750305,194,191,187
-637.236572,3754.797852,-481.636932,193,191,187
-616.922302,3748.023682,-480.755005,194,192,188
-594.472168,3727.831299,-478.008270,196,193,189
-578.945435,3749.554443,-481.085999,196,194,190
-561.625732,3761.113281,-482.751648,197,196,192
-493.538452,3433.296387,-437.241974,77,44,31
-365.617218,2665.645264,-330.574097,154,99,74
-349.178772,2643.296631,-327.507965,192,125,95
-332.969238,2620.844727,-324.426788,211,147,117
-318.958862,2613.662598,-323.468445,140,100,81
-305.737274,2612.239014,-323.310791,23,14,16
-291.636139,2603.152100,-322.087067,26,27,30
-277.216217,2590.316895,-320.341522,29,32,36
-263.541534,2583.128906,-319.381378,26,30,34
-249.750885,2573.997070,-318.150452,36,40,45
-236.609451,2570.542725,-317.709320,27,31,37
-223.350494,2565.335938,-317.024139,63,69,73
-209.482697,2552.329102,-315.252991,70,76,81
-196.536331,2548.989258,-314.827271,24,28,34
-183.627136,2545.601074,-314.394623,19,22,28
-171.033264,2546.127441,-314.506989,31,34,41
-158.439468,2546.653809,-314.619354,65,70,77
-145.730591,2545.244629,-314.462189,77,85,91
-133.044785,2543.885498,-314.311829,75,82,88
-120.471405,2544.416016,-314.424744,75,81,87
-107.982658,2546.883057,-314.807465,61,67,74
-95.622681,2553.227051,-315.730469,55,60,67
-83.073044,2555.698730,-316.114014,43,47,55
-70.611557,2562.050781,-317.038513,91,97,105
-58.087708,2568.345215,-317.955139,100,108,115
-45.505608,2574.764160,-318.889313,91,99,105
-32.883972,2582.992920,-320.075989,97,105,112
-20.182138,2591.280029,-321.271088,92,98,105
-7.399114,2599.548828,-322.463867,112,118,125
5.464642,2607.790527,-323.653137,103,109,116
18.545410,2631.695801,-327.027618,131,136,142
31.680447,2641.960205,-328.499817,30,2,-4
44.987820,2655.916748,-330.487518,149,95,73
58.249912,2662.271729,-331.414886,228,157,128
71.680992,2672.280273,-332.852295,256,185,153
86.857719,2729.581787,-340.891022,219,174,157
130.832230,3491.210205,-447.250763,208,213,216
150.568146,3541.922852,-454.384644,210,212,214
168.619156,3548.930420,-455.417847,211,213,215
186.108154,3544.673340,-454.878235,209,211,214
203.632523,3541.854492,-454.539276,208,211,213
221.085617,3538.518311,-454.127960,209,212,214
238.506424,3535.324951,-453.736542,209,212,214
255.880768,3532.060791,-453.335052,208,211,213
273.067169,3527.006348,-452.683289,207,210,212
290.357117,3523.837158,-452.294739,208,210,212
307.606720,3520.670166,-451.906403,207,210,212
324.815582,3517.502441,-451.517883,208,210,212
341.983765,3514.333984,-451.129059,207,210,212
358.480499,3505.305420,-449.920898,207,210,212
375.534485,3502.112061,-449.528320,207,210,211
392.550385,3498.941650,-449.138763,206,209,209
409.287415,3493.836914,-448.478577,207,210,210
426.209198,3490.641357,-448.085266,207,210,210
442.834320,3485.530273,-447.423828,207,210,210
459.664642,3482.333008,-447.029968,207,210,210
476.178009,3477.216797,-446.367493,206,209,209
492.916534,3474.015869,-445.972870,206,209,209
508.714783,3464.983154,-444.761963,206,209,209
525.032349,3459.840332,-444.095154,205,208,208
541.611023,3456.651855,-443.701782,206,209,209
558.148926,3453.461426,-443.307922,206,209,209
574.646057,3450.269287,-442.913757,205,208,208
591.098999,3447.055176,-442.516418,205,208,208
607.155701,3441.921143,-441.850067,205,208,208
623.516724,3438.702881,-441.451843,206,209,209
639.461853,3433.564941,-440.784546,206,209,209
654.555176,3424.482910,-439.564636,206,209,209
670.753235,3421.257812,-439.164948,207,210,210
686.910278,3418.030518,-438.764801,207,210,210
703.031006,3414.822754,-438.367279,206,209,209
718.681335,3409.671875,-437.697296,208,209,210
734.266296,3404.497559,-437.023895,208,208,209
750.244690,3401.283447,-436.625061,208,209,210
766.182251,3398.067627,-436.225891,208,209,210
781.609070,3392.906006,-435.553711,208,209,209
796.480713,3385.739014,-434.600128,208,209,210
811.775146,3380.570801,-433.926605,208,209,210
827.504700,3377.328125,-433.523041,209,210,211
842.687439,3372.154541,-432.848450,209,210,211
858.325317,3368.908936,-432.444153,209,209,210
873.931824,3365.695557,-432.044281,209,210,211
889.488525,3362.447266,-431.639374,208,209,210
905.008972,3359.213867,-431.236420,208,209,210
919.927002,3354.027344,-430.559204,209,210,211
935.927795,3352.741943,-430.429443,209,209,210
949.566284,3343.598633,-429.196442,208,209,210
964.889160,3340.342773,-428.789734,208,209,210
979.573181,3335.145264,-428.110229,209,210,211
994.196045,3329.944336,-427.430115,208,209,210
1009.380920,3326.696533,-427.024200,208,209,210
1024.520630,3323.433350,-426.615906,208,209,210
1039.624023,3320.182617,-426.209167,208,209,210
1054.686768,3316.929932,-425.802216,209,210,211
1069.708862,3313.675781,-425.394775,208,210,210
1082.660034,3304.516357,-424.157379,208,211,211
1097.570190,3301.256836,-423.748901,207,210,210
1112.435059,3297.983643,-423.338379,207,210,210
1127.263794,3294.721191,-422.929230,208,211,211
1141.337646,3289.495361,-422.243988,208,211,211
1156.074707,3286.229004,-421.833984,209,212,212
1170.766602,3282.948730,-421.421936,209,212,212
1185.422485,3279.678711,-421.011292,209,212,212
1200.037598,3276.407471,-420.600220,210,213,213
1212.307617,3267.218506,-419.356628,209,212,212
1226.806152,3263.930420,-418.942871,210,213,213
1242.053833,3262.616943,-418.806824,210,213,213
1255.690674,3257.373047,-418.117676,210,213,213
1270.071899,3254.091797,-417.704529,209,212,212
1284.412354,3250.808838,-417.291016,209,212,212
1298.712036,3247.524170,-416.877167,210,213,213
1312.971191,3244.237793,-416.462921,211,214,214
1327.189697,3240.949951,-416.048309,211,214,216
1339.637695,3233.684326,-415.073578,211,214,216
1352.897583,3228.444824,-414.383789,212,214,216
1366.956055,3225.133545,-413.965485,212,214,217
1380.981079,3221.837402,-413.549164,212,215,217
1394.965698,3218.539551,-413.132446,212,215,217
1408.909180,3215.239502,-412.715393,212,215,215
1422.812378,3211.938477,-412.297974,211,214,214
1435.751831,3206.672607,-411.603577,211,214,214
1450.496582,3205.330566,-411.462006,212,215,215
1464.277222,3202.023926,-411.043488,213,216,216
1475.128662,3192.763672,-409.785522,213,216,216
1488.797852,3189.452393,-409.366028,211,216,215
1501.443237,3184.155273,-408.666351,212,217,216
1515.034058,3180.866699,-408.249725,211,216,216
1529.546631,3179.479736,-408.101196,211,216,215
1541.059448,3172.257080,-407.129486,212,215,215
1555.511230,3170.888428,-406.983276,209,212,212
1568.926636,3167.567383,-406.561646,204,207,207
1582.302124,3164.246826,-406.139862,198,201,200
1593.530396,3156.953125,-405.157318,188,189,187
1607.867432,3155.613281,-405.014862,168,166,162
1618.896484,3148.189941,-404.013641,106,99,93
1631.318848,3143.468262,-403.393494,152,152,145
1649.121948,3148.619141,-404.167023,176,178,172
-2730.745850,4308.109375,-574.869568,26,23,31
-2713.490234,4316.945801,-576.198181,137,138,139
-2686.359131,4310.594727,-575.356812,132,130,132
-2670.200684,4321.290039,-576.951233,133,131,133
-2644.540283,4317.155273,-576.426453,135,133,135
-2615.916992,4308.212402,-575.214294,136,135,135
-2588.937988,4301.735840,-574.354309,138,137,136
-2563.874512,4298.232422,-573.919189,140,138,140
-2536.997314,4291.682129,-573.048279,142,141,143
-2505.747559,4277.778809,-571.125610,143,141,143
-2478.998535,4271.100098,-570.235779,143,141,143
-2452.199463,4264.195801,-569.313416,144,144,145
-2425.750977,4257.740723,-568.455017,145,146,147
-2401.365234,4254.679199,-568.081909,147,148,149
-2374.944824,4248.023438,-567.194458,151,152,153
-2348.608154,4241.369141,-566.307007,151,152,153
-2322.348877,4234.704590,-565.417664,153,154,155
-2296.171631,4228.037109,-564.527832,154,155,155
-2265.849609,4213.771484,-562.550110,156,157,157
-2239.876465,4207.097656,-561.658691,158,159,160
-2216.053223,4204.211914,-561.309448,158,159,160
-2190.220947,4197.528320,-560.416199,160,161,162
-2164.469727,4190.841797,-559.522339,160,161,162
-2138.849854,4184.245117,-558.641174,160,162,160
-2113.259033,4177.547363,-557.745239,160,162,160
-2089.674805,4174.561523,-557.380798,162,163,162
-2064.229736,4167.864258,-556.484436,162,164,162
-2035.006104,4153.551758,-554.496765,164,165,164
-2009.763672,4146.843262,-553.598267,164,165,163
-1984.602905,4140.132324,-552.699219,167,167,166
-1961.391479,4137.223633,-552.344849,167,167,166
-1936.372559,4130.505371,-551.444275,168,167,166
-1911.435181,4123.784180,-550.543030,169,168,167
-1886.578735,4117.058105,-549.640930,169,168,167
-1861.844116,4110.415039,-548.750427,168,167,166
-1838.875854,4107.405762,-548.380798,168,167,166
-1810.746338,4093.037109,-546.381836,166,165,162
-1784.635498,4082.761719,-544.969543,156,156,153
-1763.510742,4083.363037,-545.117249,52,56,64
-1740.959839,4080.729980,-544.800903,58,61,71
-1721.658447,4085.454834,-545.540222,101,105,110
-1703.808105,4093.644043,-546.776794,91,97,106
-1687.630371,4105.950195,-548.604431,110,113,119
-1672.819580,4121.805176,-550.941833,98,100,105
-1653.246338,4126.566406,-551.687256,179,141,94
-1632.170654,4127.759277,-551.920410,180,143,95
-1607.887451,4121.018555,-551.014404,175,136,88
-1585.157837,4117.968750,-550.638306,175,136,86
-1561.062744,4111.336426,-549.747498,175,136,86
-1538.481934,4108.401367,-549.387573,179,140,90
-1514.480591,4101.640625,-548.477966,181,142,92
-1490.560547,4094.876709,-547.567627,191,152,102
-1468.142578,4091.935059,-547.206177,189,150,100
-1444.364990,4085.165039,-546.294556,192,153,103
-1422.014771,4082.123291,-545.918518,190,152,102
-1395.693726,4067.785156,-543.918823,179,136,85
-1373.503662,4064.786377,-543.548401,180,138,87
-1350.068604,4058.050537,-542.640808,182,139,88
-1327.346802,4053.177734,-542.000793,176,133,82
-1304.061035,4046.429199,-541.090759,179,136,86
-1282.074829,4043.388428,-540.713867,177,134,84
-1259.537109,4038.510254,-540.072510,183,141,90
-1236.463257,4031.748291,-539.160095,181,141,89
-1214.057251,4026.862549,-538.517212,182,141,90
-1189.358521,4014.302246,-536.770142,189,149,98
-1167.682739,4011.293457,-536.396912,189,149,97
-1144.922607,4004.480957,-535.476196,190,149,98
-1122.791138,3999.547607,-534.825745,193,153,103
-1100.194092,3992.764404,-533.908813,174,133,84
-1078.205200,3987.861572,-533.262329,173,132,83
-1056.268433,3982.923340,-532.610474,174,133,84
-1034.402588,3978.017822,-531.963318,168,127,78
-1012.090820,3971.188232,-531.038879,165,124,74
-988.369080,3958.587158,-529.283081,157,118,70
-966.735352,3953.664307,-528.632690,156,117,69
-945.161926,3948.736572,-527.981384,154,114,69
-923.647217,3943.795898,-527.328064,147,109,64
-902.645142,3940.756348,-526.948425,146,108,63
-880.339294,3931.913330,-525.732605,146,108,63
-858.555847,3924.919922,-524.782837,143,106,63
-834.291321,3906.328613,-522.161621,53,53,53
-809.009705,3882.063232,-518.722046,62,64,69
-773.098328,3806.018311,-507.818390,82,82,86
-750.978638,3793.214600,-506.028656,192,189,187
-729.137756,3781.079834,-504.334991,191,189,184
-708.818359,3776.059814,-503.666748,191,188,184
-688.567200,3771.072998,-503.003113,193,191,186
-668.378540,3766.090088,-502.339844,191,189,185
-647.585876,3757.379639,-501.138794,193,191,187
-628.504028,3757.962402,-501.277985,194,192,187
-608.508301,3753.087891,-500.629913,195,193,189
-586.091248,3732.951416,-497.779633,196,194,190
-570.354309,3753.872803,-500.852997,197,194,192
-543.608215,3703.762207,-493.676788,198,195,193
-373.953125,2675.687500,-345.359802,106,60,43
-354.981506,2636.274658,-339.709595,160,100,74
-340.082336,2623.676270,-337.928925,212,145,116
-325.786469,2614.625244,-336.659912,206,143,117
-312.071167,2609.390381,-335.941650,48,29,23
-298.876221,2607.975830,-335.774750,38,39,42
-284.821686,2598.900635,-334.501587,27,29,33
-270.023071,2582.111084,-332.113922,30,33,37
-256.410156,2574.928711,-331.113495,32,36,41
-243.069107,2569.668213,-330.390320,41,45,51
-229.607803,2562.472412,-329.387482,12,17,22
-216.398834,2557.205322,-328.663055,61,67,72
-203.250854,2551.936035,-327.938141,33,38,43
-190.465546,2550.533447,-327.771851,12,16,22
-177.559540,2547.190918,-327.325104,50,54,61
-164.951996,2547.668457,-327.430420,56,62,67
-152.110428,2544.372803,-326.990295,108,116,122
-139.526962,2544.905273,-327.103455,87,94,102
-126.943352,2545.435303,-327.216339,72,78,86
-114.449638,2547.902588,-327.609344,93,100,107
-101.858093,2548.487305,-327.730133,92,98,105
-89.401085,2552.836914,-328.395477,109,117,124
-76.903885,2557.184082,-329.060547,95,105,112
-64.369873,2561.658203,-329.744141,96,104,112
-51.831131,2567.951172,-330.691040,83,89,98
-39.320549,2580.190918,-332.498535,89,94,101
-26.649212,2588.487549,-333.735779,85,91,98
-13.896542,2596.779541,-334.972595,95,101,108
-1.062779,2604.941162,-336.190765,107,113,119
11.863007,2615.122559,-337.701538,114,120,125
24.914053,2627.465576,-339.525543,177,175,178
38.082558,2639.447998,-341.297729,109,67,50
51.376091,2651.682129,-343.106689,195,131,101
64.691460,2660.198486,-344.377533,252,181,150
78.142883,2670.350586,-345.885620,238,172,147
123.856300,3540.165039,-471.914368,211,215,218
141.551178,3539.936035,-471.932068,210,213,215
159.964447,3554.934326,-474.155762,211,214,216
177.236969,3545.633545,-472.859192,210,213,215
195.200653,3549.990234,-473.541382,209,212,214
212.496292,3543.231201,-472.612701,210,212,215
229.950775,3539.922852,-472.183960,209,212,214
247.371094,3536.724609,-471.771088,208,211,213
264.597107,3531.587646,-471.077026,208,211,213
281.433228,3522.550781,-469.817444,208,210,213
298.864105,3521.296143,-469.685822,207,210,212
315.912323,3516.219727,-469.000061,207,210,212
333.090912,3513.052979,-468.591034,207,210,212
350.228851,3509.885498,-468.181793,207,210,212
367.323364,3506.691895,-467.768616,207,210,212
384.380127,3503.524170,-467.359100,207,210,212
401.163330,3498.424805,-466.669189,206,209,209
417.882721,3493.298584,-465.975250,207,210,210
434.282501,3486.196045,-464.994354,208,211,211
450.872314,3481.084717,-464.302155,207,210,210
467.398499,3475.951660,-463.606659,206,209,209
484.150208,3472.771484,-463.194427,207,210,210
500.858246,3469.570068,-462.779083,208,211,211
517.528503,3466.386230,-462.366119,206,209,209
533.844177,3461.264404,-461.671600,206,209,209
550.423096,3458.077148,-461.257904,206,209,209
566.627258,3452.951172,-460.562531,206,209,209
582.416077,3445.823975,-459.576263,205,208,208
598.838379,3442.609375,-459.158081,204,207,207
614.859863,3437.476318,-458.461151,204,207,207
631.190491,3434.257324,-458.042114,208,211,211
647.096008,3429.098145,-457.341095,206,209,209
663.338928,3425.895996,-456.924194,207,210,210
679.137146,3420.753662,-456.225311,208,211,211
695.283936,3417.526611,-455.804657,207,210,210
711.394592,3414.319336,-455.386597,207,210,210
726.147583,3405.225830,-454.112793,208,210,211
741.701782,3400.072266,-453.411560,208,209,210
757.649780,3396.857422,-452.992065,209,210,211
773.552307,3393.621338,-452.569305,209,210,211
788.939087,3388.440674,-451.863617,208,209,210
804.754761,3385.220703,-451.442963,209,210,211
820.529724,3381.999023,-451.022003,208,209,210
836.259216,3378.757568,-450.597961,209,210,211
851.437012,3373.585693,-449.892975,209,210,211
867.079712,3370.358398,-449.470825,209,210,211
881.600342,3363.198242,-448.476074,209,210,211
896.594849,3358.017090,-447.769226,209,210,211
912.080444,3354.767090,-447.343292,209,210,211
927.529846,3351.531738,-446.919373,210,211,212
942.361694,3346.342773,-446.210938,209,210,211
957.715088,3343.088135,-445.783905,209,210,211
973.032288,3339.847412,-445.358887,208,209,210
988.308716,3336.604492,-444.933411,209,210,211
1002.922424,3331.391357,-444.220764,209,210,211
1016.838318,3324.191895,-443.218658,209,210,210
1031.962158,3320.943115,-442.791840,208,210,211
1046.397217,3315.735596,-442.079559,207,210,210
1061.429443,3312.482422,-441.651886,208,211,211
1076.421021,3309.227783,-441.223846,208,211,211
1091.372070,3305.971924,-440.795502,208,211,211
1105.593384,3300.754395,-440.081146,207,210,210
1120.452881,3297.493896,-439.651947,207,210,210
1135.266968,3294.219482,-439.220551,208,211,211
1148.597290,3287.009033,-438.215179,208,211,211
1163.314209,3283.742676,-437.784637,209,212,212
1177.246216,3278.500488,-437.065887,210,213,213
1191.871582,3275.230713,-436.634644,209,212,212
1206.456299,3271.958740,-436.202942,209,212,212
1221.000610,3268.685547,-435.770935,210,213,213
1235.503906,3265.410400,-435.338531,208,211,211
1249.961548,3262.121338,-434.904022,210,213,213
1264.388550,3258.855225,-434.472687,209,212,212
1276.329224,3249.656738,-433.175598,210,213,213
1290.633667,3246.359863,-432.739502,209,212,212
1304.903320,3243.075195,-432.305023,211,214,214
1319.131958,3239.788574,-431.870148,210,213,213
1333.319946,3236.500000,-431.434937,211,214,214
1347.467285,3233.210205,-430.999359,211,214,214
1361.574097,3229.918457,-430.563477,211,214,215
1375.632080,3226.607666,-430.124573,211,214,216
1388.768555,3221.349121,-429.401215,211,214,214
1400.929077,3214.089844,-428.385437,212,214,217
1414.842285,3210.790039,-427.947723,212,215,215
1428.715088,3207.488281,-427.509735,211,214,214
1442.546997,3204.185059,-427.071289,210,213,213
1456.338379,3200.880127,-426.632568,209,212,212
1470.088989,3197.572998,-426.193359,209,212,212
1482.841309,3192.302490,-425.467133,209,212,212
1496.489868,3188.970459,-425.024048,208,211,209
1509.132202,3183.697998,-424.297211,207,211,209
1522.701294,3180.386475,-423.856873,204,207,206
1534.198364,3173.074951,-422.831635,202,205,203
1547.665039,3169.757812,-422.390137,196,200,198
1561.090820,3166.438721,-421.948303,194,196,194
1574.476929,3163.120117,-421.506409,184,186,183
1587.822754,3159.799805,-421.064117,173,173,168
1601.128296,3156.479004,-420.621704,153,149,143
1615.463379,3155.145020,-420.469757,127,121,112
1626.536377,3147.841309,-419.444427,142,139,130
1639.775879,3144.635254,-419.018402,148,146,139
1655.967285,3146.835938,-419.383484,152,152,145
-2739.936523,4303.203125,-596.660828,39,40,45
-2720.441406,4308.545898,-597.513977,81,81,88
-2703.079346,4317.258789,-598.867065,127,128,129
-2676.482666,4311.720215,-598.106689,132,132,133
-2660.191406,4322.261230,-599.731079,134,132,134
-2627.288330,4306.640625,-597.474976,135,133,135
-2602.162598,4303.164062,-597.019958,136,136,135
-2575.178467,4296.609375,-596.108276,138,137,138
-2550.576904,4293.799805,-595.751892,140,139,140
-2523.699463,4287.184082,-594.830688,142,141,142
-2496.899658,4280.558594,-593.907776,143,141,143
-2468.080566,4270.416504,-592.462646,144,144,145
-2441.434082,4263.737305,-591.531250,144,145,146
-2416.983887,4260.656250,-591.133911,147,147,148
-2386.093750,4246.423340,-589.080566,149,150,151
-2361.832031,4243.411133,-588.692932,151,152,153
-2333.529541,4233.236816,-587.241638,153,154,154
-2309.395752,4230.229004,-586.854370,153,154,155
-2283.259033,4223.561523,-585.923462,155,156,157
-2257.202637,4216.890137,-584.991638,157,158,159
-2231.229248,4210.218262,-584.059509,160,160,161
-2205.335938,4203.540039,-583.126282,159,161,159
-2179.579590,4196.961426,-582.207703,160,161,160
-2151.769775,4186.370117,-580.692505,159,161,159
-2126.142334,4179.682617,-579.757263,160,162,160
-2100.594482,4172.989746,-578.820862,162,163,162
-2075.128174,4166.292969,-577.883789,163,164,162
-2049.743896,4159.595215,-576.946228,163,164,163
-2026.358643,4156.692871,-576.572754,164,166,164
-2001.116089,4149.987305,-575.633728,165,167,165
-1975.954590,4143.277344,-574.693726,166,167,165
-1950.874390,4136.564453,-573.753113,167,166,166
-1924.037476,4126.039551,-572.245483,168,167,166
-1899.140381,4119.317871,-571.303040,168,167,166
-1874.323853,4112.591797,-570.359802,168,167,166
-1849.588135,4105.861328,-569.415588,166,166,165
-1824.933716,4099.125977,-568.470520,165,165,163
-1800.359497,4092.385254,-567.524475,160,159,156
-1775.868530,4085.644287,-566.578125,133,135,132
-1753.155029,4082.714600,-566.198853,58,62,70
-1730.618164,4080.093018,-565.865234,55,58,68
-1714.623413,4092.463135,-567.763245,93,99,106
-1698.321045,4104.405273,-569.598022,55,60,70
-1683.682251,4120.565918,-572.061096,96,99,105
-1664.112549,4125.313965,-572.825256,127,108,89
-1642.914551,4126.211426,-573.016113,177,140,92
-1620.162720,4123.289062,-572.638000,178,139,91
-1597.451050,4120.364258,-572.259277,176,137,89
-1574.779541,4117.436035,-571.880188,174,135,87
-1550.656128,4110.683594,-570.931152,178,137,88
-1528.085815,4107.749512,-570.550720,180,140,91
-1501.240601,4093.446777,-568.476257,183,142,93
-1478.774048,4090.406006,-568.079590,184,145,95
-1454.975708,4083.638184,-567.127380,191,152,102
-1432.648438,4080.691406,-566.744507,190,151,102
-1408.993286,4073.920166,-565.791382,198,159,110
-1386.767700,4070.968994,-565.407532,183,140,89
-1363.254639,4064.190918,-564.453003,178,135,85
-1340.460815,4059.275146,-563.776001,181,138,88
-1317.116455,4052.537354,-562.827087,172,129,79
-1292.568359,4041.916748,-561.298889,177,134,83
-1270.014404,4037.038818,-560.626892,178,135,84
-1247.509644,4032.121094,-559.948730,181,139,88
-1224.486450,4025.359619,-558.995483,181,141,89
-1202.126099,4020.474854,-558.321899,188,147,96
-1179.826538,4015.585938,-557.647583,188,147,96
-1157.577148,4010.658203,-556.967346,190,149,100
-1135.399658,4005.764404,-556.291870,189,148,97
-1113.273071,4000.832031,-555.610596,170,128,77
-1089.058105,3988.293701,-553.793823,173,132,83
-1067.105225,3983.392334,-553.116760,173,132,83
-1044.700073,3976.601562,-552.157349,174,133,84
-1022.366638,3969.772949,-551.192139,168,127,78
-1001.101990,3966.719482,-550.790344,161,119,72
-978.911011,3959.883789,-549.823730,155,116,68
-957.290833,3954.997070,-549.147949,154,114,68
-935.713867,3950.036865,-548.460999,151,113,68
-914.204346,3945.098633,-547.777222,150,112,68
-890.933350,3932.387207,-545.932007,147,109,65
-869.120056,3925.403809,-544.942139,147,109,65
-844.803650,3906.866699,-542.225708,126,93,53
-819.801025,3884.243408,-538.898193,62,63,67
-792.670715,3850.468262,-533.903198,63,65,71
-764.355530,3809.218018,-527.790100,237,236,236
-741.927917,3794.821289,-525.689819,191,189,185
-720.094238,3782.613525,-523.916382,191,188,184
-699.413330,3775.690430,-522.932556,191,189,185
-679.134949,3770.483887,-522.205261,192,190,186
-657.913513,3759.721924,-520.646973,193,191,187
-638.851868,3760.535645,-520.819580,194,191,187
-618.802917,3755.563721,-520.126831,194,192,188
-597.222656,3740.959473,-517.993164,196,193,189
-579.204224,3747.591064,-519.035767,197,194,192
-561.279724,3755.229980,-520.229187,198,195,193
-540.314392,3743.002197,-518.450378,201,198,195
-369.856323,2692.436523,-361.301422,121,73,55
-348.249237,2633.951172,-352.585022,179,116,87
-331.855804,2609.830078,-349.009888,215,149,118
-318.370483,2606.352783,-348.524017,187,131,109
-304.729095,2601.259521,-347.796082,40,33,36
-290.891510,2593.990723,-346.742310,56,58,60
-276.945770,2585.024170,-345.434143,38,42,48
-263.499573,2579.784912,-344.683807,38,42,47
-249.916687,2572.601807,-343.642242,24,28,32
-236.600952,2567.342773,-342.888550,24,29,32
-223.517319,2563.956787,-342.415314,19,25,32
-209.820023,2552.948975,-340.800262,32,35,43
-197.015518,2551.499756,-340.616760,10,14,22
-184.092712,2548.204102,-340.156616,25,31,37
-171.342606,2546.796387,-339.979187,91,97,100
-158.734848,2547.268066,-340.083374,56,62,67
-146.015884,2545.863281,-339.906342,61,67,72
-133.422638,2546.397705,-340.019867,45,51,58
-120.831741,2546.980957,-340.140717,61,67,74
-108.237862,2547.508789,-340.253265,67,73,80
-95.793404,2551.910889,-340.946655,17,23,30
-83.306175,2556.250977,-341.630829,38,44,51
-70.782875,2560.730469,-342.335968,102,107,114
-58.259335,2567.016357,-343.312103,101,109,115
-45.676643,2573.371582,-344.298828,94,102,108
-33.032867,2579.723633,-345.285248,92,98,105
-20.328640,2586.149658,-346.282928,108,114,121
-7.566123,2594.444092,-347.561035,73,79,86
5.277113,2602.616699,-348.821075,92,96,104
18.319622,2624.596680,-352.152924,109,115,122
31.423889,2634.853516,-353.726349,30,5,-1
44.629810,2645.115479,-355.300751,164,108,84
57.936798,2655.357422,-356.872467,251,180,150
71.454842,2669.307129,-359.000977,254,180,149
89.152054,2799.410645,-378.565369,216,216,217
132.992767,3549.330322,-491.180664,210,214,216
150.111557,3535.295166,-489.120605,211,214,216
168.740601,3554.264648,-492.015625,211,214,216
186.099686,3546.996582,-490.971283,211,214,216
203.737534,3545.682861,-490.820953,210,212,215
221.102463,3540.562988,-490.098907,210,213,215
238.544174,3537.378174,-489.667297,209,212,214
255.796021,3532.245605,-488.943115,209,211,213
272.987640,3527.124268,-488.220337,209,211,213
290.287933,3523.956055,-487.790894,208,211,213
307.547974,3520.791748,-487.361969,208,211,213
324.767365,3517.627197,-486.932861,207,210,212
341.746155,3512.511230,-486.210388,207,210,212
358.453735,3505.439697,-485.193817,208,211,213
375.520721,3502.271973,-484.763763,207,210,212
392.546967,3499.102295,-484.333466,208,210,212
409.289398,3493.957275,-483.605957,207,210,212
426.224182,3490.785156,-483.174957,207,210,211
442.860046,3485.678711,-482.453003,207,210,210
459.700592,3482.482666,-482.018158,207,210,210
476.224670,3477.371094,-481.295105,207,210,210
492.973572,3474.171631,-480.859528,207,210,210
508.782867,3465.145752,-479.547455,206,209,209
525.419495,3461.941406,-479.110809,207,210,210
541.700012,3456.820557,-478.385712,206,209,209
558.248474,3453.632568,-477.951324,206,209,209
574.413757,3448.486572,-477.222168,206,209,209
590.870544,3445.294678,-476.786957,206,209,209
607.286804,3442.101807,-476.351410,205,208,208
623.658142,3438.884766,-475.912201,206,209,209
639.609741,3433.729492,-475.181091,207,210,210
654.713989,3424.653564,-473.859619,208,211,211
670.926453,3421.451172,-473.422180,207,210,210
687.093689,3418.225586,-472.981140,208,211,211
703.224854,3415.020264,-472.543030,208,211,211
718.885986,3409.873779,-471.812469,208,211,211
734.486450,3404.724854,-471.081421,208,211,211
750.470337,3401.491699,-470.638733,209,210,211
765.958984,3396.337646,-469.906586,209,210,211
781.856201,3393.121826,-469.466278,209,210,211
796.253540,3383.995850,-468.135345,210,211,212
812.038696,3380.775635,-467.694153,208,209,210
827.783264,3377.553711,-467.252502,209,210,211
843.487183,3374.330078,-466.810547,209,210,211
858.629639,3369.158203,-466.074768,210,211,212
874.237305,3365.912842,-465.629333,210,211,211
889.809021,3362.683838,-465.186157,210,211,212
905.339783,3359.452637,-464.742645,210,211,212
920.268738,3354.270752,-464.004791,210,211,212
935.708130,3351.035645,-463.560364,210,211,211
949.928955,3343.848389,-462.519836,209,210,211
964.670105,3338.642090,-461.777893,209,210,211
979.956909,3335.401123,-461.332184,209,210,210
995.198486,3332.143799,-460.883911,208,209,210
1010.403992,3328.899902,-460.437561,208,211,211
1024.935913,3323.698242,-459.695740,209,210,211
1040.049561,3320.449707,-459.248444,208,211,211
1055.122803,3317.199707,-458.800842,208,211,211
1070.155273,3313.947754,-458.352844,208,211,211
1083.786499,3306.739258,-457.307587,209,212,212
1098.033447,3301.524902,-456.563049,208,211,211
1112.913452,3298.266846,-456.113800,208,211,211
1127.752563,3295.006592,-455.664001,208,211,211
1141.832397,3289.772217,-454.916016,208,211,211
1156.580078,3286.508301,-454.465546,208,211,211
1171.286987,3283.243164,-454.014618,210,213,213
1185.208618,3278.013916,-453.267090,209,212,212
1199.824097,3274.744629,-452.815369,210,213,213
1212.854858,3267.511963,-451.764893,210,213,213
1227.368652,3264.238037,-451.312256,209,212,212
1241.841797,3260.962646,-450.859222,209,212,212
1256.273926,3257.685547,-450.405823,210,213,213
1270.665527,3254.406982,-449.952057,209,212,212
1285.016479,3251.126709,-449.498047,209,212,212
1299.326782,3247.844727,-449.043610,210,213,213
1312.755493,3242.583008,-448.289856,210,213,213
1326.974243,3239.296875,-447.834564,210,213,213
1339.429932,3232.051758,-446.780670,210,213,213
1353.546997,3228.761719,-446.324554,209,212,212
1367.623291,3225.469727,-445.867981,210,213,213
1381.650757,3222.158447,-445.408447,209,212,212
1394.760254,3216.918457,-444.657013,209,212,212
1409.607910,3215.583496,-444.496124,208,211,211
1423.521484,3212.284912,-444.038147,207,210,210
1437.385132,3208.964600,-443.576813,206,209,209
1450.284058,3203.699707,-442.821198,205,208,208
1464.065308,3200.395508,-442.362030,204,207,207
1475.880249,3193.123779,-441.302399,202,205,205
1489.548584,3189.792725,-440.838959,200,203,203
1502.215576,3184.520996,-440.081696,199,202,200
1515.803833,3181.208740,-439.620819,197,201,198
1529.351562,3177.895752,-439.159668,192,196,194
1542.839233,3174.542969,-438.692444,188,191,188
1555.301880,3169.279541,-437.935913,182,184,180
1568.717651,3165.960938,-437.473602,176,176,173
1582.092896,3162.641357,-437.011047,165,163,159
1593.323975,3155.355713,-435.947876,148,143,134
1607.663940,3154.022461,-435.785828,131,123,115
1618.757202,3146.721191,-434.719910,103,96,86
1631.978271,3143.464355,-434.266388,146,144,136
1648.692749,3146.621826,-434.784363,147,148,138
-2732.374023,4307.801270,-619.933289,39,37,46
-2716.329346,4318.511719,-621.635437,194,197,199
-2688.028809,4310.386230,-620.442322,131,132,133
-2671.995361,4321.288086,-622.174194,134,133,135
-2645.777344,4316.297363,-621.462830,135,133,135
-2618.142578,4308.947266,-620.388428,136,135,135
-2593.147217,4305.687988,-619.942993,139,137,139
-2566.243164,4299.262207,-619.010437,139,138,140
-2539.592285,4293.117188,-618.120850,142,141,143
-2508.150146,4278.940430,-615.995667,143,142,143
-2481.407715,4272.309082,-615.030823,145,143,145
-2454.754639,4265.688477,-614.067322,145,145,146
-2428.170898,4259.044434,-613.100098,146,147,147
-2401.768066,4252.566895,-612.158325,148,150,148
-2377.347412,4249.373535,-611.721619,150,151,152
-2351.076416,4242.873535,-610.776001,152,153,154
-2324.799561,4236.219238,-609.806458,153,154,155
-2298.600586,4229.556152,-608.835327,155,155,156
-2268.257324,4215.300293,-606.695190,156,157,157
-2242.261719,4208.628418,-605.722107,157,158,159
-2216.347412,4201.952637,-604.748352,159,161,159
-2190.514404,4195.273438,-603.773804,160,162,160
-2166.793213,4192.386230,-603.383057,160,161,159
-2141.104248,4185.704102,-602.407776,161,163,161
-2115.494629,4179.015137,-601.431152,162,163,161
-2089.968262,4172.325195,-600.454224,162,164,162
-2064.567627,4165.719238,-599.490051,164,165,163
-2037.226440,4155.126953,-597.911560,163,164,163
-2011.962646,4148.423828,-596.931824,165,166,165
-1986.781494,4141.718262,-595.951660,165,166,165
-1963.548828,4138.811523,-595.556641,166,166,163
-1938.509399,4132.098633,-594.575012,168,167,166
-1913.550903,4125.382324,-593.592590,167,167,166
-1888.673462,4118.661621,-592.609253,168,167,166
-1865.617554,4115.644531,-592.196777,167,166,165
-1840.926636,4109.011719,-591.226624,167,166,165
-1811.038208,4090.863281,-588.480835,165,164,161
-1788.234985,4087.896240,-588.075500,152,154,150
-1765.488770,4084.964355,-587.675415,51,55,61
-1742.784668,4082.033203,-587.275330,58,61,71
-1723.464966,4086.757080,-588.055786,107,113,120
-1704.092407,4091.455566,-588.832458,92,98,105
-1687.929688,4103.788574,-590.786804,101,106,114
-1673.233765,4119.905762,-593.325439,97,100,105
-1653.655518,4124.656738,-594.110718,179,141,94
-1634.020752,4129.371582,-594.890625,180,141,93
-1608.176880,4118.825195,-593.315613,176,136,89
-1585.492432,4115.892090,-592.915100,174,135,86
-1562.803589,4112.843262,-592.496704,175,134,84
-1538.768921,4106.213379,-591.525574,178,139,89
-1516.227417,4103.275879,-591.124023,181,140,91
-1492.286499,4096.516602,-590.132507,183,142,93
-1468.426880,4089.754639,-589.140320,182,143,93
-1446.049438,4086.812988,-588.737854,190,151,101
-1422.332397,4080.044678,-587.744385,192,153,103
-1397.336182,4069.445557,-586.159119,179,137,86
-1374.454468,4064.532715,-585.451721,180,138,87
-1351.668945,4059.718018,-584.759277,179,136,85
-1328.926880,4054.850098,-584.058594,179,136,84
-1305.606323,4048.065186,-583.061523,177,134,81
-1282.997070,4043.192871,-582.359802,177,134,83
-1260.447998,4038.316162,-581.657166,182,139,88
-1237.947266,4033.397217,-580.947937,183,140,89
-1214.934814,4026.640381,-579.954529,182,141,90
-1190.801270,4015.965576,-578.355286,189,148,97
-1168.537476,4011.077393,-577.650330,190,150,98
-1145.778076,4004.307861,-576.654297,188,148,96
-1123.646362,3999.414307,-575.948120,189,149,98
-1101.564575,3994.479492,-575.235291,173,131,80
-1079.555054,3989.580566,-574.528015,173,133,81
-1057.607056,3984.680908,-573.820435,172,131,80
-1034.704712,3976.009766,-572.529419,173,132,83
-1012.889038,3971.067871,-571.814941,163,122,73
-989.644226,3960.362305,-570.208862,157,116,69
-967.981506,3955.411621,-569.492676,159,119,72
-945.920410,3948.605225,-568.489258,154,114,68
-924.852539,3945.553955,-568.066528,148,110,65
-903.389221,3940.660889,-567.358765,147,109,64
-881.505920,3933.693359,-566.329895,147,109,64
-859.308838,3924.973145,-565.029602,143,105,61
-835.856689,3910.120361,-562.780029,54,47,42
-810.545593,3885.885254,-559.077942,64,66,70
-775.362183,3813.513672,-547.924561,64,64,70
-752.424988,3796.986816,-545.413818,190,188,186
-730.206909,3783.131836,-543.316101,189,187,183
-709.491577,3776.193359,-542.288940,191,189,185
-689.191650,3771.013916,-541.533875,192,189,185
-669.019531,3766.182617,-540.832581,193,190,186
-648.855286,3761.059326,-540.085938,194,191,187
-629.466187,3760.044434,-539.975342,195,193,189
-610.080261,3758.932129,-539.849609,196,194,190
-589.154480,3748.234375,-538.239197,196,194,190
-571.455627,3757.255859,-539.683167,198,196,191
-553.933899,3768.016113,-541.396667,197,197,194
-419.594574,2983.913086,-419.957733,210,203,198
-354.255005,2628.523438,-364.927032,114,67,50
-338.948242,2612.698730,-362.506744,206,138,110
-324.429199,2601.564697,-360.812958,225,157,125
-311.498230,2602.085693,-360.925232,78,49,42
-297.662415,2595.085693,-359.871796,45,46,48
-283.889160,2587.936035,-358.794861,53,58,61
-269.561646,2574.995117,-356.820099,53,59,64
-256.186554,2569.806152,-356.046753,42,49,54
-243.050247,2566.414307,-355.551941,52,58,63
-229.956009,2563.028564,-355.057922,46,50,55
-216.908569,2559.703857,-354.573273,27,30,36
-203.901581,2556.375244,-354.087982,35,39,45
-190.934509,2553.036621,-353.600983,36,40,48
-178.148666,2551.626465,-353.412994,14,19,26
-165.256454,2548.337646,-352.933563,8,12,20
-152.397491,2544.937012,-352.436676,1,5,15
-139.697159,2543.591797,-352.258636,5,11,18
-127.113533,2544.121094,-352.371368,-1,3,10
-114.617073,2546.524658,-352.774963,-1,1,7
-102.103256,2548.985840,-353.187500,-3,1,9
-89.571663,2551.516846,-353.610962,5,11,18
-77.017265,2553.989258,-354.025391,19,23,31
-64.491867,2558.400635,-354.740875,27,33,40
-51.964954,2564.751709,-355.757538,16,22,29
-39.463093,2576.852051,-357.666962,66,71,78
-26.802765,2585.135498,-358.984039,77,83,90
-14.052942,2591.572510,-360.014679,55,58,66
-1.239916,2599.864502,-361.333405,94,100,105
11.665040,2609.945068,-362.930176,71,75,83
24.695061,2622.271484,-364.876038,106,107,113
37.813984,2632.506104,-366.497223,113,70,52
50.992722,2640.826904,-367.821350,217,148,120
64.407776,2654.906982,-370.040436,256,180,148
78.022408,2670.791748,-372.540253,227,197,188
124.280098,3556.095703,-510.133331,210,215,216
141.427139,3540.821777,-507.803009,212,215,217
159.713791,3552.885742,-509.720856,212,215,217
177.302765,3549.564941,-509.247833,211,213,216
195.082458,3550.247803,-509.397095,210,213,215
212.740891,3549.030029,-509.250885,211,213,216
230.110352,3543.901855,-508.496582,210,213,215
247.419052,3538.779785,-507.743195,209,212,214
264.517670,3531.773438,-506.696655,209,212,214
281.359009,3522.670898,-505.324005,209,211,214
298.800140,3521.416748,-505.171600,207,210,212
315.859009,3516.344238,-504.425232,207,210,212
333.048004,3513.180176,-503.975616,208,211,213
350.193451,3509.986572,-503.521332,208,210,213
367.301270,3506.822754,-503.071533,207,210,212
384.368408,3503.657715,-502.621399,208,211,213
401.162506,3498.563477,-501.871094,208,211,213
417.892395,3493.440918,-501.116211,207,210,212
434.049713,3484.409912,-499.752960,207,210,212
450.903320,3481.235107,-499.300842,208,211,213
