-1466.139160,4025.352539,-452.999756,102,104,111
-1449.242065,4036.850830,-454.713898,100,100,105
-1429.447754,4040.499268,-455.543213,182,143,93
-1410.880493,4047.781982,-456.784485,185,146,96
-1388.449097,4044.031250,-456.777954,181,142,92
-1364.647827,4036.113770,-456.298462,182,141,92
-1342.220581,4032.080078,-456.257965,183,142,92
-1318.513306,4024.012939,-455.758636,184,143,92
-1294.948120,4016.128174,-455.278381,186,146,94
-1271.464111,4008.242676,-454.796509,187,146,95
-1248.101440,4000.486328,-454.327698,198,158,106
-1225.932983,3996.363281,-454.271301,198,158,108
-1202.672974,3988.479492,-453.785156,199,159,109
-1179.495239,3980.597900,-453.297638,187,145,92
-1156.963257,3974.657471,-453.030334,183,140,87
-1134.493042,3968.718994,-452.762054,184,141,89
-1109.903442,3955.005859,-451.602600,182,140,87
-1087.071655,3947.162598,-451.112885,183,141,88
-1064.834473,3941.222412,-450.839783,184,142,89
-1042.649902,3935.249756,-450.561737,186,143,92
-1020.535828,3929.312744,-450.286530,187,144,93
-997.996887,3921.464355,-449.790405,192,151,100
-976.007568,3915.497559,-449.509216,189,146,96
-953.621155,3907.650391,-449.010193,196,156,104
-931.771912,3901.715820,-448.730042,197,156,105
-908.615845,3889.917969,-447.772156,204,162,111
-886.483521,3882.072510,-447.268280,181,138,88
-864.857971,3876.137207,-446.983673,178,135,84
-843.293518,3870.202393,-446.697876,179,136,86
-821.784119,3864.238525,-446.407532,173,132,83
-799.945923,3856.392090,-445.897797,172,131,82
-778.575745,3850.461182,-445.608612,168,127,80
-756.890625,3842.619873,-445.096436,165,125,77
-736.018860,3838.602783,-445.027100,162,122,76
-713.761047,3826.923096,-444.065613,160,121,76
-693.009888,3822.898193,-443.992981,156,116,71
-671.663940,3815.254639,-443.497772,154,117,71
-650.401672,3807.639648,-443.004395,134,98,56
-628.790283,3797.435303,-442.207153,64,65,71
-606.141113,3780.086182,-440.572968,66,68,74
-582.354797,3754.224121,-437.939575,134,134,140
-557.018799,3716.197510,-433.876953,196,195,192
-535.143494,3699.394775,-432.293060,195,193,191
-514.432190,3689.702637,-431.539490,197,194,192
-492.256317,3668.317871,-429.411560,196,194,192
-471.790009,3658.491455,-428.637054,197,195,192
-451.427887,3648.682373,-427.862549,196,194,190
-430.951538,3637.046387,-426.871033,196,194,190
-410.814362,3627.343506,-426.104797,196,193,191
-390.987122,3619.583252,-425.565643,197,195,190
-371.229370,3611.718506,-425.012482,197,195,191
-351.374542,3602.015869,-424.240753,198,196,192
-331.626221,3592.378418,-423.474701,200,197,195
-311.069489,3572.261719,-421.466949,199,197,195
-290.063049,3544.047363,-418.496277,202,199,197
-270.019958,3524.604980,-416.559357,203,200,198
-199.386063,2789.470459,-329.730194,112,67,46
-176.487976,2663.341309,-315.045837,131,86,62
-157.303162,2576.751221,-305.033264,123,81,58
-140.785522,2522.020020,-298.791473,75,52,41
-126.011086,2490.688232,-295.323425,46,45,44
-111.905769,2466.981201,-292.757202,47,48,49
-97.828209,2437.702393,-289.521790,44,45,48
-84.724419,2427.898193,-288.604279,46,49,51
-71.668228,2416.214111,-287.460297,50,54,58
-58.824913,2408.357422,-286.771362,50,54,58
-46.063271,2400.497314,-286.080414,60,65,68
-33.383816,2392.667480,-285.391510,56,61,64
-20.785835,2384.839111,-284.701141,55,59,65
-8.285622,2382.833252,-284.707642,58,62,67
4.189475,2378.887939,-284.480896,103,109,115
16.623489,2374.896484,-284.247742,75,80,87
29.067070,2374.830078,-284.485901,75,78,87
41.510586,2374.761719,-284.723816,71,75,82
53.999519,2376.633789,-285.195465,77,81,89
66.455093,2376.635010,-285.441925,77,83,90
78.975060,2378.513672,-285.914978,86,92,99
91.594696,2382.416260,-286.632996,68,72,79
104.253181,2386.256348,-287.344177,41,44,50
116.953499,2390.115723,-288.058563,51,55,60
130.026001,2400.000488,-289.503387,82,86,92
142.858078,2404.153076,-290.255554,88,90,93
155.746201,2408.486328,-291.030487,191,176,170
167.937958,2402.311768,-290.530548,141,92,72
180.011917,2395.427734,-289.943176,180,124,96
192.203949,2390.883301,-289.638916,201,139,111
204.537003,2388.514893,-289.598602,235,167,135
217.768524,2396.212158,-290.784027,249,179,146
231.707397,2410.366943,-292.758484,231,170,143
293.610718,2892.524170,-351.848206,206,211,214
356.041626,3332.445312,-405.879395,208,211,213
375.920197,3353.681152,-408.821136,207,209,211
393.711761,3355.319580,-409.369659,206,209,211
411.544830,3357.147705,-409.941772,206,209,211
428.652924,3353.173828,-409.803192,206,209,211
445.720398,3349.201416,-409.664001,206,208,210
462.747162,3345.229492,-409.524017,204,207,209
479.453369,3339.317383,-409.144897,204,207,209
496.098755,3333.407471,-408.764832,204,207,209
512.083313,3323.621582,-407.906525,204,207,209
528.586548,3317.715332,-407.524109,204,207,207
545.348938,3313.747803,-407.379486,204,207,207
561.740112,3307.841064,-406.994751,203,206,206
578.410767,3303.873535,-406.848267,203,206,206
594.693787,3297.989014,-406.464172,203,206,206
611.268555,3293.999268,-406.313080,203,206,206
627.802612,3290.009766,-406.161316,203,206,206
644.300110,3286.043457,-406.011566,204,207,207
659.586426,3276.282471,-405.142456,203,206,206
675.570190,3270.377930,-404.749939,203,206,206
691.904663,3266.411865,-404.596985,203,206,206
708.193542,3262.422852,-404.440399,204,207,207
724.019348,3256.541992,-404.047577,205,208,208
740.216248,3252.553467,-403.889282,204,207,207
756.377625,3248.588379,-403.733002,205,206,207
772.035339,3242.685059,-403.334229,205,206,207
788.105042,3238.720459,-403.176239,205,206,207
802.206665,3227.025146,-402.051544,206,207,208
818.154297,3223.061035,-401.891205,205,206,207
834.049133,3219.050537,-401.724243,205,206,207
849.407349,3213.172119,-401.322510,205,206,207
865.216370,3209.186279,-401.156799,205,206,207
880.462708,3203.307617,-400.752808,206,207,208
896.186218,3199.345215,-400.588257,206,207,208
911.314331,3193.444092,-400.179199,205,206,207
926.946350,3189.482178,-400.012878,206,206,207
940.812439,3179.705322,-399.113770,205,206,207
956.332214,3175.743652,-398.945251,206,207,208
971.215881,3169.843994,-398.531586,206,206,207
986.644348,3165.883057,-398.361359,206,207,208
1001.416077,3159.984131,-397.945557,205,206,207
1016.752747,3156.023438,-397.773529,206,207,208
1032.048340,3152.063232,-397.600739,206,207,208
1046.662720,3146.181152,-397.183868,207,208,208
1061.861450,3142.205078,-397.007263,206,207,208
1077.024902,3138.245361,-396.831970,207,208,209
1090.117065,3128.472656,-395.917999,208,209,210
1105.168579,3124.513184,-395.740509,207,208,208
1120.179321,3120.554199,-395.562225,207,208,209
1135.149170,3116.594971,-395.383179,205,206,206
1149.366455,3110.714600,-394.958618,207,208,209
1164.239258,3106.740967,-394.775879,207,208,209
1178.344849,3100.861084,-394.349121,207,208,209
1193.873779,3098.824951,-394.411926,207,208,209
1207.871582,3092.929932,-393.981293,207,208,209
1221.039795,3085.097900,-393.301758,208,209,210
1235.683838,3081.140869,-393.116486,208,209,210
1250.287231,3077.184082,-392.930389,210,211,212
1264.849854,3073.227051,-392.743561,210,213,213
1279.371704,3069.270264,-392.555878,209,212,212
1293.852905,3065.313965,-392.367493,210,211,212
1307.463867,3059.421387,-391.929443,211,212,213
1321.853394,3055.465576,-391.739319,211,212,213
1336.195679,3051.495117,-391.546448,210,213,213
1347.929810,3041.743896,-390.608246,211,214,214
1362.166504,3037.788818,-390.415161,212,215,215
1376.362793,3033.834229,-390.221283,212,215,215
1390.511353,3029.865234,-390.024811,212,215,215
1404.632568,3025.925049,-389.831177,212,214,217
1417.795288,3020.034424,-389.384583,213,215,217
1431.818359,3016.080322,-389.187378,212,215,217
1445.800537,3012.126709,-388.989380,213,216,218
1459.734863,3008.158691,-388.788757,214,217,219
1471.739014,3000.346924,-388.088654,215,218,220
1484.616699,2994.457275,-387.636536,215,218,220
1498.405518,2990.504639,-387.434906,216,218,220
1512.153564,2986.552002,-387.232391,216,219,221
1525.860840,2982.599609,-387.029175,216,219,221
1538.532837,2976.727539,-386.575043,217,220,222
1553.153198,2974.695557,-386.620331,218,221,223
1566.738159,2970.743896,-386.414764,218,221,223
1579.258301,2964.873535,-385.957855,219,222,224
1592.751953,2960.922607,-385.750549,219,223,225
1604.098145,2953.100830,-385.036224,219,224,225
1617.490112,2949.150635,-384.827026,220,225,227
1630.841675,2945.200928,-384.617065,221,226,227
1644.152466,2941.252197,-384.406403,222,227,228
1657.423218,2937.304443,-384.195068,222,227,229
1670.653442,2933.356934,-383.982971,224,229,230
1683.842773,2929.409424,-383.770081,226,231,232
1696.990356,2925.460205,-383.556122,228,233,234
1710.112793,2921.537598,-383.344910,228,233,235
1719.744873,2911.785889,-382.365051,230,235,236
1733.896240,2909.774414,-382.403534,232,236,238
1745.680664,2903.867188,-381.927643,233,238,240
1757.589111,2898.265625,-381.490875,235,240,241
1775.642578,2902.785400,-382.390381,237,242,243
-2581.649902,4364.740234,-494.639618,76,54,33
-2559.281006,4365.395508,-495.164734,40,40,46
-2528.094727,4350.890137,-493.964844,66,66,73
-2500.210938,4341.858887,-493.385529,134,133,135
-2473.853271,4335.339355,-493.090668,133,132,131
-2448.609375,4330.671387,-493.005707,134,133,133
-2423.285645,4325.775391,-492.893829,136,133,133
-2396.627930,4318.386719,-492.495911,136,135,134
-2368.167236,4307.580078,-491.705536,139,138,139
-2334.807373,4287.571777,-489.859283,141,140,142
-2306.105957,4275.815918,-488.954712,142,141,142
-2277.528564,4264.065430,-488.048370,143,142,144
-2251.112793,4256.171875,-487.582489,145,144,145
-2224.667480,4248.066406,-487.090668,146,145,146
-2196.507324,4236.492188,-486.198151,148,147,149
-2170.273193,4228.438477,-485.708588,152,150,152
-2142.311035,4216.819336,-484.806580,154,152,154
-2116.275635,4208.793945,-484.316620,154,153,154
-2084.646973,4189.360840,-482.508087,155,153,155
-2060.759277,4185.240723,-482.464996,156,155,157
-2033.235840,4173.571289,-481.547882,157,156,157
-2007.653442,4165.678711,-481.065674,158,158,159
-1982.152466,4157.786133,-480.581787,158,159,160
-1956.732788,4149.894531,-480.096466,160,161,162
-1931.348633,4141.904297,-479.598022,160,161,161
-1906.093384,4134.015625,-479.109711,161,161,162
-1880.963135,4126.222656,-478.630951,160,161,162
-1852.364258,4110.552246,-477.233978,163,163,164
-1827.391968,4102.661621,-476.739807,163,162,163
-1802.501709,4094.772461,-476.244232,164,165,166
-1776.046997,4083.098389,-475.305481,164,166,164
-1751.341553,4075.214355,-474.806915,165,166,165
-1728.322144,4071.111084,-474.748688,165,167,165
-1703.756714,4063.220459,-474.246552,166,168,166
-1677.714478,4051.566650,-473.302094,167,169,167
-1653.340454,4043.698242,-472.798950,168,169,168
-1625.930176,4028.104736,-471.388000,168,169,168
-1601.876831,4020.533447,-470.915710,167,167,166
-1579.242432,4016.372559,-470.842651,161,160,157
-1555.441650,4009.095703,-470.402222,104,108,110
-1533.046875,4005.297607,-470.369843,57,62,71
-1512.146362,4005.356689,-470.791168,73,77,85
-1491.418701,4005.885010,-471.267883,94,100,107
-1472.839722,4012.286133,-472.437897,39,44,54
-1454.812744,4020.402344,-473.811768,100,102,108
-1439.097412,4035.243896,-475.982635,171,141,105
-1421.883911,4046.265625,-477.704437,185,145,97
-1400.696899,4046.140137,-478.108337,185,145,98
-1376.871582,4038.272949,-477.594452,184,145,95
-1354.426147,4034.275635,-477.538147,183,142,93
-1330.787598,4026.544189,-477.037506,185,145,93
-1307.177490,4018.654785,-476.516602,184,143,92
-1284.891113,4014.647949,-476.455994,192,151,100
-1261.424316,4006.760986,-475.932495,190,149,98
-1238.040649,3998.879395,-475.408051,197,157,105
-1213.517700,3986.984619,-474.403351,198,158,106
-1190.916260,3981.104492,-474.114197,201,159,109
-1167.786865,3973.221680,-473.584595,185,142,89
-1145.845337,3969.174561,-473.512054,183,141,88
-1122.872559,3961.340820,-472.985474,185,143,90
-1100.507324,3955.401367,-472.684204,183,141,88
-1077.673462,3947.520508,-472.148956,184,141,89
-1055.431396,3941.547119,-471.841034,186,143,90
-1032.760132,3933.703857,-471.307312,186,143,93
-1009.161621,3921.937500,-470.300385,184,141,90
-986.664551,3914.061768,-469.759094,188,145,95
-964.720276,3908.096191,-469.446228,195,154,103
-942.845215,3902.163574,-469.136078,195,154,103
-921.031128,3896.230713,-468.824738,197,156,105
-899.278198,3890.298340,-468.512268,176,133,83
-877.155212,3882.455566,-467.967743,180,137,87
-855.534119,3876.522705,-467.652588,179,136,85
-833.974243,3870.590088,-467.336212,181,138,89
-810.436340,3854.946533,-465.842316,174,133,83
-789.447693,3850.958740,-465.758331,172,131,82
-767.731262,3843.119629,-465.206177,171,129,82
-746.097900,3835.291504,-464.653748,160,121,74
-725.267578,3831.283203,-464.564087,158,118,73
-704.486816,3827.321045,-464.479218,156,116,70
-683.735107,3823.296143,-464.385864,155,118,72
-662.379700,3815.550049,-463.838257,148,111,66
-641.421814,3809.692871,-463.519409,119,94,63
-617.091980,3782.757080,-460.626312,66,68,74
-593.180420,3756.691162,-457.833923,64,66,72
-567.379028,3716.435303,-453.300995,230,229,228
-545.730408,3701.546387,-451.864258,195,193,191
-524.731689,3690.146973,-450.851776,196,193,191
-504.072418,3680.365479,-450.035370,198,195,193
-483.278198,3668.783203,-448.995941,196,194,191
-462.595215,3657.129395,-447.945374,197,194,192
-442.244049,3647.217773,-447.106567,196,193,191
-422.020630,3637.521729,-446.292206,196,194,192
-401.040649,3620.062012,-444.520081,196,194,191
-381.059143,3610.365234,-443.700806,197,195,192
-361.360870,3602.495361,-443.104858,198,196,193
-341.404663,3591.041016,-442.064911,200,197,195
-321.579834,3579.725586,-441.039734,201,198,196
-302.147980,3571.677490,-440.416199,202,199,197
-281.331482,3545.038818,-437.490723,201,200,198
-261.332672,3525.715332,-435.465637,166,149,143
-191.723053,2778.981445,-343.281616,130,85,61
-164.131516,2572.880615,-318.004486,130,85,61
-147.443237,2517.532471,-311.400116,96,62,46
-132.677719,2487.644043,-307.947601,55,54,50
-118.615784,2465.982178,-305.511993,38,36,39
-105.037270,2450.399414,-303.828430,46,46,49
-91.691071,2436.695068,-302.375641,45,46,48
-78.612923,2426.924316,-301.410400,43,45,49
-65.586029,2415.246338,-300.205170,50,55,58
-52.762295,2407.390869,-299.474884,50,54,58
-39.895908,2391.770264,-297.772522,54,58,62
-27.297667,2385.884766,-297.284607,53,57,63
-14.771438,2381.973145,-297.042542,57,61,67
-2.285575,2377.996094,-296.791565,59,63,69
10.159378,2374.052002,-296.543823,93,98,104
22.603233,2373.987793,-296.782227,97,103,110
35.017925,2372.038330,-296.783813,97,103,110
47.450844,2371.924072,-297.015717,81,87,94
59.934933,2373.802002,-297.498260,73,77,84
72.441879,2375.758789,-297.991119,85,91,98
85.038223,2379.585938,-298.720123,78,84,91
97.676102,2383.429199,-299.451935,80,86,93
110.440620,2389.095703,-300.414734,58,62,68
123.171677,2392.969238,-301.152161,39,43,48
136.058014,2398.825195,-302.141113,46,48,55
148.801117,2401.405518,-302.716797,79,68,62
161.330704,2400.436035,-302.843445,125,80,61
173.652527,2396.758789,-302.626740,160,108,81
185.901825,2392.637939,-302.352997,195,133,104
197.883575,2385.833008,-301.737671,221,156,127
210.935654,2391.853760,-302.750519,242,173,141
225.044205,2408.408203,-305.104126,242,173,140
322.987396,3265.942871,-414.489319,206,209,213
350.489899,3364.866455,-427.428680,208,211,213
365.084778,3336.975098,-424.223053,208,211,213
384.592438,3354.249512,-426.773804,207,210,212
402.400696,3355.905762,-427.334015,207,210,212
420.005188,3355.796387,-427.668945,206,209,211
436.595093,3347.943115,-427.013519,206,209,211
453.893463,3345.888672,-427.098694,205,208,210
470.626099,3339.981689,-426.689972,205,207,209
487.300354,3334.094238,-426.282532,205,207,210
503.910950,3328.188477,-425.871490,204,207,209
520.765442,3324.222900,-425.708374,204,207,209
537.264221,3318.318604,-425.295380,203,206,208
553.701782,3312.414551,-424.881165,204,207,207
570.413696,3308.448730,-424.715210,204,207,207
586.047607,3298.666504,-423.799194,203,206,206
602.295715,3292.784424,-423.383942,203,206,206
618.840393,3288.796387,-423.211945,204,207,207
635.348572,3284.831055,-423.042023,203,206,206
651.811401,3280.843750,-422.868500,202,205,205
667.846130,3274.963867,-422.449280,204,207,207
683.820129,3269.084961,-422.029053,203,206,206
700.140076,3265.096924,-421.852600,203,206,206
716.419067,3261.109619,-421.675385,203,206,206
731.355530,3251.354492,-420.748901,204,207,207
747.522217,3247.367676,-420.569550,204,207,207
763.653503,3243.404297,-420.392426,204,207,207
779.281982,3237.527100,-419.965576,205,207,208
794.843628,3231.626709,-419.534454,206,207,208
810.826416,3227.640137,-419.351471,206,207,208
826.281921,3221.763184,-418.921173,206,207,208
842.172974,3217.778076,-418.736572,205,206,207
858.029297,3213.815918,-418.554169,206,207,208
872.257812,3204.040771,-417.611176,207,207,208
887.996094,3200.058105,-417.423859,206,207,208
903.156250,3194.181152,-416.987732,206,207,208
918.249573,3188.283203,-416.547638,206,207,207
933.851257,3184.322510,-416.360382,206,207,208
949.406311,3180.342773,-416.169800,206,207,208
964.342346,3174.464600,-415.729095,207,208,208
979.806030,3170.486328,-415.536865,206,207,208
995.234680,3166.527100,-415.346344,206,207,208
1010.622620,3162.568359,-415.155090,207,207,208
1023.457642,3150.894531,-413.946594,207,208,208
1038.717896,3146.918945,-413.750671,206,207,208
1053.942749,3142.960449,-413.556213,206,207,208
1068.465698,3137.065430,-413.105194,207,208,209
1083.599121,3133.106934,-412.908936,207,208,209
1098.691528,3129.148926,-412.711914,207,207,208
1113.743286,3125.191406,-412.514130,207,208,208
1128.052368,3119.297363,-412.059021,207,208,209
1143.012695,3115.339844,-411.859467,207,208,208
1156.487061,3107.509277,-411.145142,208,208,209
1170.612793,3101.615967,-410.686462,208,209,210
1185.420166,3097.659424,-410.483978,208,209,210
1200.187012,3093.703369,-410.280762,208,209,210
1214.912964,3089.747070,-410.076721,209,210,210
1229.591797,3085.775391,-409.869781,208,209,210
1243.465454,3079.914795,-409.410248,209,210,211
1258.052856,3075.943848,-409.201569,210,212,213
1273.403198,3073.909668,-409.250732,210,213,213
1285.489502,3064.161377,-408.268616,209,212,212
1299.934326,3060.191895,-408.057373,210,212,212
1314.344482,3056.237549,-407.847290,209,212,212
1327.875732,3050.361816,-407.379059,210,213,213
1342.194458,3046.408203,-407.167267,210,213,213
1356.472412,3042.454346,-406.954590,211,214,214
1369.834351,3036.564697,-406.481262,212,215,215
1384.020508,3032.611328,-406.266907,212,215,215
1398.166016,3028.658447,-406.051758,212,215,215
1410.453003,3020.820068,-405.312988,213,215,217
1424.496582,3016.867432,-405.095856,213,215,217
1438.505981,3012.928955,-404.879822,213,216,218
1451.531738,3007.041260,-404.400085,214,217,219
1465.443237,3003.088867,-404.180420,215,218,220
1479.313721,2999.137207,-403.959961,215,218,220
1492.184326,2993.265137,-403.479126,215,218,220
1506.932739,2991.234375,-403.516785,216,218,220
1520.681030,2987.283447,-403.294006,216,219,221
1531.396606,2977.526611,-402.283752,217,220,222
1545.033081,2973.576172,-402.058807,216,219,221
1558.637329,2969.642334,-401.835358,217,220,222
1572.183472,2965.675537,-401.606628,218,221,223
1584.668823,2959.807861,-401.118652,219,222,224
1599.171021,2957.776367,-401.151337,220,222,224
1611.555420,2951.910156,-400.661591,218,223,225
1625.995728,2949.877441,-400.692871,220,224,226
1638.279541,2944.013672,-400.201447,221,226,228
1651.580566,2940.066162,-399.970276,222,227,228
1662.644531,2932.252930,-399.210388,222,227,229
1675.844604,2928.307129,-398.977386,224,229,230
1689.018921,2924.387451,-398.747223,225,230,232
1702.119019,2920.410156,-398.508301,227,232,234
1715.211792,2916.489990,-398.276459,229,234,235
1728.231689,2912.516113,-398.036346,231,236,237
1741.245850,2908.600830,-397.803558,233,237,239
1753.015869,2902.696289,-397.296844,234,239,241
1765.999146,2898.880371,-397.075836,235,240,242
1783.779175,2902.919922,-397.934113,237,242,244
-2591.763428,4360.175781,-516.831604,81,55,24
-2570.602783,4362.851562,-517.600708,34,32,35
-2548.304443,4363.628906,-518.144409,35,33,41
-2517.574219,4349.854980,-516.955200,160,161,164
-2489.704590,4340.819336,-516.328064,134,132,134
-2461.002441,4330.155273,-515.504639,134,133,134
-2437.029541,4327.693848,-515.658691,134,133,133
-2408.372803,4316.793457,-514.803528,136,135,135
-2381.627930,4309.147949,-514.335571,137,136,137
-2352.813721,4297.578613,-513.396301,140,139,140
-2325.912598,4289.318359,-512.851135,141,140,141
-2297.279297,4277.673340,-511.898285,143,141,143
-2268.881104,4266.243652,-510.968933,144,143,144
-2242.338379,4258.113281,-510.433746,147,145,147
-2209.948975,4238.608887,-508.529022,148,146,148
-2181.845703,4227.014648,-507.572418,149,148,149
-2155.756592,4219.128906,-507.060059,153,151,153
-2129.677246,4211.102051,-506.529083,154,152,154
-2101.869141,4199.456055,-505.559814,155,154,155
-2076.041748,4191.565430,-505.041595,155,154,155
-2050.295166,4183.675293,-504.521851,157,157,158
-2024.630249,4175.785156,-504.000488,157,158,159
-1998.995361,4167.787598,-503.464508,158,159,160
-1968.012817,4148.343262,-501.539886,159,160,161
-1942.653687,4140.454590,-501.012695,160,161,162
-1917.375732,4132.566406,-500.483917,160,161,162
-1892.178345,4124.676758,-499.953369,161,162,163
-1867.063232,4116.789551,-499.421478,162,163,164
-1842.030151,4108.902832,-498.888062,162,164,163
-1817.078369,4101.016602,-498.353119,164,165,165
-1792.208008,4093.131104,-497.816620,164,166,164
-1767.419067,4085.246094,-497.278534,165,166,165
-1739.431641,4069.685059,-495.801605,165,167,165
-1714.803833,4061.701416,-495.247467,166,167,166
-1690.300171,4053.817871,-494.703979,168,169,168
-1665.930786,4046.062500,-494.174561,168,169,168
-1641.599609,4038.205078,-493.631073,169,170,169
-1617.355347,4030.362549,-493.087738,169,169,168
-1593.198853,4022.536865,-492.544861,169,168,167
-1570.654907,4018.631348,-492.481964,154,153,150
-1546.659424,4010.858643,-491.942780,56,60,68
-1523.039429,4003.861816,-491.497589,60,63,72
-1503.527588,4007.626953,-492.376190,94,100,107
-1483.783447,4010.873779,-493.191711,97,103,111
-1465.760742,4018.937012,-494.602081,111,115,121
-1450.239990,4034.202637,-496.903290,99,101,106
-1430.294556,4037.427002,-497.719818,180,142,93
-1411.707153,4044.642822,-499.030762,184,145,97
-1390.525146,4044.532227,-499.436371,183,144,94
-1366.783813,4036.859131,-498.905243,183,144,94
-1344.277954,4032.656250,-498.802704,183,142,93
-1319.334351,4020.889160,-497.760834,186,145,94
-1295.809814,4013.141113,-497.215607,186,146,94
-1272.323364,4005.261475,-496.652374,188,148,97
-1248.917114,3997.378906,-496.087219,196,155,104
-1226.784668,3993.378906,-496.003845,196,156,104
-1203.522461,3985.500488,-495.436371,201,162,111
-1181.459351,3981.391113,-495.337341,183,140,89
-1158.356201,3973.568848,-494.774048,185,143,90
-1135.858887,3967.581543,-494.438354,186,144,91
-1111.267822,3953.919678,-493.141968,186,143,91
-1088.937256,3947.944092,-492.804565,185,142,89
-1066.164307,3940.105469,-492.232605,184,141,89
-1043.968018,3934.136475,-491.893311,188,145,92
-1021.842712,3928.204590,-491.557465,187,144,94
-999.292297,3920.363281,-490.980774,189,146,95
-977.299255,3914.431885,-490.642365,188,147,96
-955.359375,3908.468018,-490.298706,194,153,102
-933.032593,3900.628662,-489.717773,193,152,101
-909.863464,3888.838379,-488.637665,200,160,110
-887.719543,3880.999268,-488.053162,183,140,89
-866.516174,3877.010010,-487.952728,178,135,84
-844.923584,3871.049316,-487.602600,179,137,86
-822.992493,3863.208984,-487.013702,177,136,87
-801.136047,3855.338379,-486.419342,174,133,84
-779.754333,3849.411133,-486.069366,167,126,77
-758.433655,3843.484375,-485.718292,167,126,79
-736.808899,3835.654297,-485.124664,163,124,77
-715.254761,3827.768799,-484.522400,159,119,73
-694.140808,3821.860596,-484.169617,158,118,72
-673.104919,3816.050781,-483.828125,154,116,70
-652.142822,3810.322266,-483.495789,137,100,58
-630.237183,3798.539795,-482.391663,62,62,67
-607.918396,3783.418701,-480.859711,66,68,74
-584.023376,3757.122070,-477.899689,114,113,118
-558.302368,3716.811035,-473.145874,195,194,191
-536.430298,3700.193604,-471.409698,196,193,191
-515.708984,3690.589600,-470.566498,197,194,192
-493.253357,3667.315430,-467.972656,196,194,192
-472.774017,3657.486084,-467.095276,196,194,192
-452.173645,3645.853027,-465.984680,196,194,192
-431.924438,3636.163574,-465.121002,197,194,192
-411.554840,3624.521484,-464.004700,197,194,192
-391.924316,3618.604980,-463.621399,197,194,192
-372.165497,3610.844482,-462.999878,198,195,193
-352.298920,3601.153076,-462.128326,198,196,193
-332.540619,3591.546875,-461.265778,201,198,196
-312.013611,3571.951904,-459.114105,201,199,197
-291.067444,3544.725830,-455.974274,201,199,197
-270.865875,3523.513672,-453.604980,205,202,200
-198.766281,2770.604980,-356.718353,118,72,52
-176.628098,2655.153076,-342.081451,134,87,63
-157.562164,2570.350586,-331.385895,122,80,58
-140.972549,2514.150146,-324.376068,47,45,42
-126.315086,2484.680664,-320.818573,38,37,38
-112.322136,2463.121582,-318.280853,40,41,43
-98.326218,2435.813477,-314.992432,42,43,45
-85.220345,2426.014648,-313.972809,49,51,55
-72.217674,2416.251221,-312.955719,52,56,60
-59.363373,2408.427734,-312.189056,51,56,59
-46.589897,2400.571289,-311.416443,55,59,65
-33.872906,2390.839844,-310.397858,64,68,74
-21.289175,2384.956299,-309.879150,49,53,59
-8.772396,2381.015625,-309.612793,43,47,53
3.703600,2377.039795,-309.341034,54,58,64
16.124598,2371.205811,-308.825562,70,74,80
28.558628,2371.149902,-309.064880,89,95,102
40.991661,2371.034424,-309.296295,94,100,107
53.426926,2371.038086,-309.543396,98,104,111
65.967621,2374.717285,-310.272522,76,81,89
78.423897,2374.730225,-310.521210,72,77,84
90.957329,2376.700684,-311.027100,82,88,95
103.676117,2382.376953,-312.020538,78,84,91
116.372177,2386.377930,-312.794830,59,64,69
129.531097,2398.050781,-314.580017,51,55,61
142.264526,2400.578613,-315.162598,39,37,39
154.562531,2396.016602,-314.810822,107,69,52
166.728073,2390.246826,-314.298645,155,102,77
179.212845,2389.478760,-314.445923,190,130,101
191.590561,2387.482910,-314.430786,213,149,120
203.901978,2384.953857,-314.344666,237,169,137
217.065704,2392.019775,-315.528412,240,169,135
231.416565,2410.576660,-318.236206,204,210,213
335.157043,3303.212891,-436.855835,207,210,212
356.992340,3345.062012,-442.753571,208,211,213
375.871887,3356.734375,-444.652191,208,211,213
393.259766,3354.694824,-444.730743,207,210,212
410.854340,3354.501953,-445.054443,207,209,211
428.464905,3354.442139,-445.395844,205,208,210
445.549988,3350.446045,-445.212860,205,208,210
462.598175,3346.479980,-445.033051,205,208,210
479.049957,3338.657959,-444.337860,204,207,209
495.993347,3334.671143,-444.153320,204,207,209
511.703430,3322.973877,-442.937408,205,207,209
528.524353,3318.987549,-442.750458,204,207,209
544.991455,3313.107666,-442.309204,203,205,207
561.724121,3309.143311,-442.123352,206,209,209
578.411926,3305.155518,-441.933533,204,207,207
594.716492,3299.276123,-441.489166,204,207,207
611.312317,3295.288818,-441.297607,203,206,206
627.500793,3289.387207,-440.847992,204,207,207
644.009155,3285.423584,-440.657806,205,208,208
659.302917,3275.646973,-439.684448,204,207,207
675.302856,3269.770264,-439.234375,204,207,207
691.648438,3265.807373,-439.041016,203,206,206
707.948120,3261.821045,-438.843719,204,207,207
723.785400,3255.945068,-438.390472,204,207,207
739.993225,3251.958740,-438.191376,204,207,207
755.713257,3246.059814,-437.732849,204,207,207
771.840393,3242.121826,-437.538422,205,208,208
787.448486,3236.223145,-437.077698,205,207,207
802.029480,3226.449951,-436.090607,206,207,208
817.982056,3222.465820,-435.886719,205,208,208
833.899841,3218.504883,-435.685150,206,208,208
849.263489,3212.607666,-435.219788,206,206,207
865.089600,3208.647461,-435.016510,206,207,208
880.341309,3202.750977,-434.548981,207,208,208
896.075745,3198.791016,-434.343933,205,206,207
911.763306,3194.810059,-434.135223,206,207,207
926.858093,3188.935303,-433.667419,207,208,208
940.736511,3179.166260,-432.667023,206,207,208
956.261536,3175.188477,-432.455444,206,207,208
971.751709,3171.230713,-432.245819,206,207,208
986.601624,3165.354248,-431.772949,206,207,208
1002.000122,3161.396240,-431.561493,207,208,208
1017.352234,3157.421631,-431.346893,207,207,208
1032.038940,3151.544678,-430.870728,207,208,209
1047.299805,3147.571289,-430.654541,207,208,209
1061.874512,3141.694336,-430.176117,207,208,209
1077.048950,3137.737549,-429.960358,207,208,209
1090.153198,3127.972168,-428.945068,207,208,209
1105.215820,3124.015869,-428.727142,206,207,208
1120.231812,3120.044189,-428.506317,207,208,209
1135.212769,3116.088623,-428.286865,207,208,209
1150.152832,3112.132812,-428.066620,207,208,209
1164.336426,3106.272217,-427.582581,208,208,209
1179.179321,3102.301758,-427.358521,207,208,209
1193.987183,3098.346924,-427.135712,208,209,210
1208.002319,3092.471924,-426.646484,208,209,210
1221.176392,3084.630371,-425.883759,209,210,211
1235.831299,3080.676025,-425.658020,209,210,211
1249.663330,3074.801514,-425.165222,209,210,211
1265.019409,3072.768555,-425.204285,210,211,212
1278.743530,3066.879395,-424.707397,210,211,212
1293.225464,3062.926270,-424.478424,209,212,212
1307.666626,3058.972900,-424.248566,209,212,212
1322.067261,3055.020264,-424.018036,209,212,212
1336.420898,3051.053711,-423.784698,210,213,213
1348.166870,3041.309326,-422.745209,210,213,213
1362.414429,3037.357178,-422.511627,211,214,214
1376.621704,3033.405273,-422.277374,211,214,214
1389.897705,3027.518555,-421.771973,210,213,213
1404.013062,3023.567139,-421.535919,211,214,215
1418.087524,3019.615723,-421.299011,212,215,217
1432.121338,3015.664795,-421.061401,213,215,217
1446.114624,3011.713867,-420.822998,214,216,218
1460.067017,3007.763428,-420.583801,213,216,218
1471.124878,2998.008545,-419.529358,214,217,219
1484.972534,2994.073242,-419.290070,215,218,220
1498.764771,2990.108398,-419.045868,216,218,220
1512.523926,2986.158936,-418.802979,216,218,221
1526.242188,2982.209717,-418.559326,215,218,220
1539.919556,2978.260010,-418.314850,217,219,221
1553.556274,2974.311035,-418.069611,217,220,222
1566.138428,2968.444824,-417.553070,218,220,222
1579.683960,2964.496582,-417.306152,218,221,223
1593.179199,2960.531250,-417.055969,218,222,224
1605.589600,2954.648682,-416.533936,217,222,224
1617.949341,2948.785645,-416.013428,219,223,225
1631.300781,2944.819092,-415.760284,220,225,226
1644.633911,2940.893311,-415.512024,220,225,227
1657.915649,2936.948242,-415.260254,221,226,228
1670.052612,2931.070068,-414.733368,222,227,229
1683.259888,2927.155273,-414.484070,224,229,230
1696.408203,2923.208740,-414.229492,225,230,232
1710.615845,2921.137451,-414.240784,227,232,233
1720.293457,2911.449707,-413.167633,228,233,235
1734.436768,2909.408691,-413.181580,230,235,236
1745.110107,2901.643555,-412.379272,232,237,238
1758.177246,2897.949707,-412.156036,234,239,241
1776.169800,2902.351318,-413.087677,235,240,242
-2581.084473,4358.896973,-539.851990,77,52,32
-2559.623779,4361.076660,-540.574402,39,39,46
-2530.206787,4349.620605,-539.601929,91,92,101
-2501.869629,4339.833496,-538.834778,136,134,136
-2475.768799,4333.782227,-538.530945,135,134,135
-2450.106689,4328.397461,-538.308838,135,134,135
-2426.150879,4325.956055,-538.452942,136,135,137
-2399.195557,4318.073730,-537.917175,138,136,138
-2372.881104,4311.208008,-537.506836,139,138,139
-2337.807129,4288.144531,-535.069702,141,140,142
-2311.165283,4280.254395,-534.526733,142,141,142
-2282.547607,4268.517578,-533.500305,144,143,145
-2254.041260,4256.761719,-532.469055,145,144,145
-2227.584961,4248.683105,-531.896851,147,146,147
-2199.390137,4237.095215,-530.882324,149,148,149
-2173.215820,4229.206543,-530.330200,152,150,152
-2147.123291,4221.318359,-529.776489,153,154,155
-2121.047852,4213.303711,-529.205383,153,154,155
-2089.373291,4193.882324,-527.195557,154,155,155
-2063.585205,4185.994629,-526.635925,156,156,157
-2037.879272,4178.108398,-526.074829,157,158,159
-2012.254517,4170.221191,-525.512085,158,159,160
-1986.709473,4162.332031,-524.947388,160,161,162
-1961.247681,4154.446289,-524.381592,160,161,162
-1935.818604,4146.456055,-523.800964,161,162,163
-1910.522461,4138.576172,-523.232605,160,161,162
-1883.578735,4126.907715,-522.182251,161,162,163
-1854.956421,4111.250000,-520.623169,162,163,162
-1829.962891,4103.365723,-520.048340,163,165,163
-1805.051147,4095.483887,-519.471985,164,166,164
-1780.220459,4087.600586,-518.894043,165,167,165
-1755.471680,4079.718506,-518.314514,165,167,165
-1730.843140,4071.928467,-517.745178,166,168,166
-1706.257568,4064.050293,-517.162964,168,169,168
-1681.755737,4056.177246,-516.579773,168,169,168
-1657.338135,4048.311279,-515.995850,168,170,168
-1629.884521,4032.730469,-514.424072,168,170,168
-1607.140869,4028.554443,-514.308350,168,167,166
-1581.724243,4017.478516,-513.308105,163,162,160
-1557.768433,4009.868652,-512.749878,133,134,130
-1535.407715,4006.216553,-512.697693,57,61,68
-1512.992432,4002.322754,-512.613770,50,53,61
-1493.498901,4006.163086,-513.522705,95,101,108
-1472.704590,4006.574707,-513.991516,54,60,70
-1455.672119,4017.387939,-515.799072,99,103,109
-1440.111572,4032.644775,-518.180969,126,108,89
-1422.832642,4043.472656,-519.995361,185,146,98
-1401.617188,4043.270508,-520.389221,182,143,95
-1379.021729,4039.022461,-520.260681,184,145,95
-1355.310181,4031.323975,-519.685486,184,144,95
-1332.844604,4027.151611,-519.564758,185,144,94
-1309.259644,4019.409180,-518.981140,184,144,92
-1286.912598,4015.282715,-518.864197,190,149,100
-1263.426147,4007.406250,-518.260498,194,154,102
-1240.022705,3999.535156,-517.655701,195,155,103
-1215.515015,3987.772705,-516.544250,197,158,106
-1192.294312,3979.901367,-515.935852,204,165,113
-1170.295654,3975.907471,-515.830017,183,140,89
-1147.231812,3968.086182,-515.225342,186,143,91
-1124.770508,3962.103516,-514.858521,185,143,90
-1102.384766,3956.172119,-514.497131,186,143,91
-1079.541138,3948.340576,-513.886719,186,143,91
-1057.276733,3942.368652,-513.517456,184,142,89
-1035.084595,3936.438477,-513.152344,187,144,93
-1010.962585,3922.776123,-511.775085,185,145,93
-988.924927,3916.813477,-511.402496,185,145,93
-966.956909,3910.884277,-511.033112,194,154,102
-944.580750,3903.014648,-510.408234,194,153,102
-922.752869,3897.119385,-510.040649,195,155,104
-900.529297,3889.250488,-509.412811,175,132,81
-878.825623,3883.321533,-509.038269,179,136,85
-857.182922,3877.392578,-508.662476,179,136,86
-835.595093,3871.434570,-508.281647,179,136,86
-812.447998,3857.772461,-506.884918,177,136,87
-790.632019,3849.906494,-506.249420,174,133,84
-769.667053,3845.891846,-506.120331,166,125,76
-748.006653,3838.093994,-505.490906,163,124,76
-726.783997,3832.181152,-505.108948,161,122,76
-705.972107,3828.168213,-504.976990,156,116,71
-684.874268,3822.327637,-504.602386,156,117,71
-663.830505,3816.451904,-504.221985,150,112,68
-643.177979,3812.539795,-504.100555,133,103,67
-619.455627,3789.568115,-501.450409,66,68,74
-595.171387,3761.520020,-498.121643,64,67,75
-568.746521,3717.531006,-492.669525,241,240,240
-546.790894,3700.734131,-490.823303,194,193,190
-525.759766,3689.207764,-489.674805,195,194,191
-504.838104,3677.605713,-488.513885,199,196,194
-484.272156,3667.787842,-487.588287,197,195,192
-463.564423,3656.042969,-486.403748,197,194,192
-443.214691,3646.243896,-485.476379,197,194,192
-422.979004,3636.550049,-484.561127,197,195,192
-402.209198,3621.122559,-482.877411,197,194,192
-382.204834,3611.427734,-481.957397,197,194,192
-362.302246,3601.743652,-481.036804,198,196,194
-342.682556,3593.979004,-480.371460,200,197,195
-322.829407,3582.717041,-479.235474,202,199,197
-303.209412,3572.826416,-478.281219,202,200,198
-282.216614,3544.311768,-474.823761,202,201,198
-262.143066,3524.190674,-472.488464,105,79,68
-190.823975,2755.481934,-369.458344,139,90,66
-164.196564,2563.626709,-343.919281,131,85,63
-147.703934,2511.221436,-337.126343,60,44,37
-133.080597,2483.723389,-333.680511,40,39,40
-119.122757,2464.132568,-331.295837,48,49,50
-105.620659,2450.443359,-329.703949,44,47,49
-92.262657,2436.782227,-328.113068,47,49,52
-79.170959,2426.982666,-327.041565,45,47,51
-66.131599,2415.318604,-325.715668,51,56,59
-53.337597,2409.402588,-325.165924,54,58,62
-40.447548,2393.789062,-323.300446,51,55,61
-27.827753,2387.907959,-322.751984,54,58,63
-15.269054,2382.027588,-322.202423,51,55,61
-2.772393,2378.086182,-321.915009,61,65,71
9.683537,2374.145264,-321.626892,57,61,67
22.118179,2372.144775,-321.602020,56,60,66
34.532467,2370.143799,-321.576691,100,104,109
46.926464,2368.145752,-321.551331,86,92,99
59.350037,2368.083984,-321.789642,96,101,108
71.836510,2370.048340,-322.304504,94,100,107
84.408531,2373.783203,-323.061615,94,100,107
97.024940,2377.625977,-323.834290,85,89,96
109.693611,2381.708252,-324.640533,95,101,106
122.405296,2385.779785,-325.446198,29,33,39
135.365967,2393.437744,-326.744110,30,30,36
147.851196,2392.198975,-326.823700,58,36,28
160.180618,2388.844482,-326.612701,141,91,67
172.425491,2384.806152,-326.307220,172,114,87
185.051514,2386.164795,-326.742554,200,138,110
197.288376,2382.690674,-326.513519,225,159,129
211.225143,2398.755371,-328.973022,243,174,140
230.509613,2469.851074,-339.015930,216,210,207
332.199310,3362.842773,-462.368378,206,210,211
350.244232,3366.477295,-463.220551,207,210,212
366.571472,3354.121338,-461.865967,206,208,211
384.582703,3357.512939,-462.684418,207,210,212
401.952698,3355.273682,-462.725128,207,210,212
419.562775,3355.125732,-463.054718,207,210,212
436.671387,3351.150879,-462.854401,206,209,211
453.476196,3345.245605,-462.385742,206,208,210
470.220032,3339.341309,-461.916016,205,207,210
487.187073,3335.375732,-461.714172,205,208,210
504.110352,3331.390869,-461.508789,205,207,210
520.694702,3325.510986,-461.039185,205,207,209
537.215027,3319.611328,-460.565643,205,208,210
553.995056,3315.624512,-460.357178,204,206,208
570.407227,3309.748291,-459.884674,205,207,209
586.059265,3299.949707,-458.864166,204,207,207
602.680115,3295.986572,-458.655731,205,208,208
618.894653,3290.087402,-458.176239,205,208,208
635.423767,3286.125244,-457.966064,205,208,208
651.907593,3282.140137,-457.751923,205,208,208
667.968506,3276.287842,-457.275757,204,207,207
683.959106,3270.389648,-456.791870,205,208,208
700.300110,3266.405029,-456.574982,204,207,207
716.605164,3262.443604,-456.360504,205,208,208
731.558899,3252.672852,-455.329895,204,207,207
747.746582,3248.688721,-455.110016,204,207,207
763.447205,3242.815186,-454.623779,205,208,208
779.548584,3238.855225,-454.405426,205,208,208
795.131714,3232.958984,-453.913788,204,207,207
810.659668,3227.086426,-453.424225,206,207,208
826.612732,3223.103760,-453.199860,206,208,209
842.022644,3217.208496,-452.704865,205,206,207
857.890015,3213.249268,-452.482056,205,208,208
872.653564,3205.396973,-451.708282,205,208,208
887.885986,3199.523682,-451.212769,206,207,208
903.051636,3193.629639,-450.713135,207,208,209
918.715271,3189.671875,-450.486420,206,207,208
934.332336,3185.694336,-450.256073,206,206,207
949.340820,3179.821045,-449.756104,206,207,208
964.866150,3175.844727,-449.524170,206,207,208
979.762756,3169.971191,-449.021942,206,207,208
995.202271,3166.014160,-448.790863,207,208,209
1010.595459,3162.040039,-448.556610,206,207,208
1024.068115,3152.294678,-447.500000,207,207,208
1039.354980,3148.338867,-447.266083,207,208,209
1053.950195,3142.447510,-446.755432,208,209,209
1069.145386,3138.492188,-446.519775,206,207,208
1084.294189,3134.520752,-446.280975,207,208,209
1099.407959,3130.565918,-446.043762,207,208,209
1113.795044,3124.691406,-445.531342,207,208,209
1128.115356,3118.801758,-445.015472,207,208,209
1143.086670,3114.847656,-444.775452,207,208,209
1156.572998,3107.023193,-443.980164,207,208,209
1171.442261,3103.069336,-443.738220,207,208,209
1185.534180,3097.196045,-443.220062,208,209,210
1200.306152,3093.227295,-442.974182,208,209,210
1215.043213,3089.274414,-442.729706,209,210,211
1229.739136,3085.321777,-442.484467,208,211,211
1244.394653,3081.368652,-442.238434,208,211,211
1259.009399,3077.416260,-441.991608,208,211,211
1272.785889,3071.543701,-441.467255,210,211,212
1285.675659,3063.707764,-440.658569,209,212,212
1300.143433,3059.769775,-440.410828,209,212,212
1314.558960,3055.804688,-440.158295,210,213,213
1328.100952,3049.931885,-439.629272,210,213,213
1342.424927,3045.968018,-439.375122,210,213,213
1356.713745,3042.017334,-439.122070,210,213,213
1370.961792,3038.066406,-438.868225,211,214,214
1384.290161,3032.194824,-438.335114,211,214,214
1398.440796,3028.231689,-438.077667,211,214,214
1410.745850,3020.413086,-437.259705,210,213,213
1424.800659,3016.463867,-437.002167,211,214,214
1438.814575,3012.514404,-436.743866,212,215,217
1451.858398,3006.644775,-436.205322,212,215,217
1465.781006,3002.696045,-435.945312,213,215,218
1480.604736,3000.653076,-435.962097,214,217,219
1493.496460,2994.784424,-435.420746,214,217,219
1507.296509,2990.836182,-435.158356,215,218,220
1521.055786,2986.887939,-434.895172,215,218,220
1531.791748,2977.154541,-433.785797,215,218,220
1545.431030,2973.191162,-433.518127,216,219,221
1559.037720,2969.243652,-433.252045,216,218,221
1572.603516,2965.296631,-432.985138,216,219,221
1586.128662,2961.349854,-432.717438,217,220,222
1599.612915,2957.403076,-432.448944,215,220,222
1613.056519,2953.456543,-432.179688,217,221,223
1626.459595,2949.510498,-431.909668,218,223,225
1638.754761,2943.651123,-431.357727,218,223,225
1653.143188,2941.618164,-431.367218,219,224,226
1663.143433,2931.900635,-430.245453,220,225,227
1677.445801,2929.860352,-430.252258,222,227,228
1690.624390,2925.914795,-429.977875,223,228,230
1702.650513,2920.066650,-429.422119,224,229,231
1716.877686,2918.055176,-429.431335,226,231,232
1728.786011,2912.179932,-428.869507,227,232,234
1742.953003,2910.170410,-428.877838,229,234,236
1753.593872,2902.369629,-428.029236,232,237,238
1766.697510,2898.735596,-427.795685,235,240,241
1784.271851,2902.421143,-428.645447,237,242,244
-2588.053955,4349.064453,-561.318726,97,71,40
-2569.336670,4355.811035,-562.643372,48,40,38
-2548.291016,4358.697754,-563.469421,36,36,43
-2520.878662,4350.651855,-562.878662,187,187,192
-2491.397949,4338.858398,-561.800049,135,134,135
-2461.882812,4326.790527,-560.683289,136,134,136
-2437.945068,4324.393555,-560.821045,136,135,137
-2411.344727,4317.187500,-560.332642,137,136,137
-2382.901855,4306.517578,-559.392029,139,138,139
-2355.800537,4298.094238,-558.741882,140,139,140
-2329.116211,4290.278320,-558.169189,142,141,142
-2300.417480,4278.567383,-557.086670,143,142,143
-2271.823486,4266.824219,-555.997498,144,143,144
-2245.384277,4258.938965,-555.410095,147,145,147
-2212.940918,4239.394043,-553.296143,149,148,149
-2184.719727,4227.627441,-552.196289,150,149,150
-2158.602783,4219.735840,-551.601562,153,152,153
-2132.570312,4211.850586,-551.006165,153,154,155
-2106.618408,4203.965332,-550.408997,154,155,156
-2080.748779,4196.080566,-549.810425,156,157,158
-2054.959961,4188.196289,-549.210205,156,157,158
-2029.253540,4180.312500,-548.608459,158,159,160
-2003.576294,4172.320801,-547.990906,159,160,161
-1972.548950,4152.891602,-545.865112,160,161,162
-1947.147461,4145.009277,-545.257507,161,162,163
-1921.827393,4137.126953,-544.648315,161,162,163
-1896.588745,4129.245117,-544.037598,162,162,163
-1871.431519,4121.364258,-543.425232,163,164,164
-1846.355957,4113.483398,-542.811340,164,165,163
-1821.361938,4105.603027,-542.195923,164,166,164
-1796.409668,4097.632812,-541.567017,165,167,165
-1771.617676,4089.843262,-540.960388,166,167,166
-1741.920654,4070.401123,-538.806335,166,168,166
-1717.314331,4062.525635,-538.183838,168,170,168
-1692.791016,4054.655029,-537.560486,169,170,168
-1669.951904,4050.673096,-537.452515,169,170,168
-1645.577759,4042.820068,-536.828491,169,170,169
-1621.290649,4034.981689,-536.205017,170,169,168
-1597.100342,4027.183105,-535.585083,167,166,166
-1573.005371,4019.422119,-534.968689,155,155,152
-1549.009766,4011.711670,-534.357361,47,52,61
-1525.370361,4004.727295,-533.841492,60,64,71
-1504.424927,4004.725098,-534.257629,100,104,111
-1484.831787,4008.377930,-535.162964,93,99,106
-1466.618530,4015.918213,-536.589539,113,118,125
-1451.097534,4031.163330,-539.050354,102,102,106
-1432.492310,4038.163574,-540.408508,185,147,98
-1414.002075,4045.706787,-541.841003,185,146,98
-1391.439697,4041.648438,-541.716797,182,143,95
-1368.924805,4037.609131,-541.594238,183,144,94
-1346.454346,4033.578369,-541.472107,182,141,92
-1321.430664,4021.649414,-540.285706,186,145,94
-1297.841797,4013.775879,-539.643311,188,147,96
-1274.375122,4006.030518,-539.016602,188,148,97
-1252.122681,4001.913086,-538.877869,194,156,104
-1228.757568,3994.041016,-538.231140,195,157,105
-1205.474243,3986.169434,-537.582947,199,161,109
-1183.425293,3982.180664,-537.458313,181,138,88
-1160.285034,3974.311035,-536.807617,183,140,89
-1137.781738,3968.381348,-536.417969,187,145,92
-1113.701172,3956.627686,-535.237549,184,141,89
-1090.815186,3948.758545,-534.581848,185,142,90
-1068.031372,3940.967041,-533.934937,185,142,90
-1045.812256,3934.997803,-533.534180,187,144,91
-1023.664856,3929.068604,-533.137573,183,143,91
-1001.569641,3923.105469,-532.735107,187,147,95
-979.069214,3915.273682,-532.076965,193,152,101
-957.107117,3909.312012,-531.672058,193,152,101
-935.214966,3903.385742,-531.270813,195,154,103
-911.574524,3889.731201,-529.813293,200,159,109
-889.844604,3883.803955,-529.408691,180,137,87
-867.742126,3875.937256,-528.737671,180,137,86
-846.144592,3870.010498,-528.330566,180,137,87
-824.608459,3864.084717,-527.922302,174,133,83
-802.730225,3856.220215,-527.247131,172,131,82
-781.326843,3850.297363,-526.836609,167,126,77
-759.984680,3844.375488,-526.424988,168,126,79
-738.704041,3838.456055,-526.012512,162,122,75
-716.417786,3826.831299,-524.814697,159,119,74
-695.649231,3822.893555,-524.671814,159,120,74
-674.583618,3817.045166,-524.265137,157,117,72
-653.917908,3813.180420,-524.130493,139,102,59
-632.006897,3801.573730,-522.927734,59,58,62
-610.494324,3791.695557,-521.961060,67,69,75
-586.043030,3762.253662,-518.291077,96,93,99
-559.697937,3718.155518,-512.589722,194,193,191
-537.467163,3699.253662,-510.363403,194,193,191
-516.464722,3687.730957,-509.154449,194,193,190
-494.514069,3668.266113,-506.843140,196,194,192
-473.775696,3656.609619,-505.609985,197,194,192
-453.389313,3646.813477,-504.632477,196,194,192
-432.898743,3635.282715,-503.412231,197,194,192
-412.735260,3625.576904,-502.443024,197,194,192
-392.883575,3617.820068,-501.742767,197,194,192
-373.103546,3609.978760,-501.029144,198,195,193
-353.415344,3602.244385,-500.328827,200,197,195
-333.639221,3592.694336,-499.373901,200,197,195
-313.092224,3573.168945,-497.026184,202,200,198
-292.476471,3550.317383,-494.210205,202,201,198
-271.522797,3519.947998,-490.339722,206,204,201
-197.515182,2743.030273,-382.136230,123,76,56
-176.577057,2644.126465,-368.590576,144,95,70
-157.619400,2560.677734,-357.187317,95,60,41
-141.463577,2511.786377,-350.606781,51,48,45
-127.010223,2486.459473,-347.318817,52,53,54
-113.000832,2465.082031,-344.579620,52,52,55
-98.979706,2437.812500,-341.008881,36,39,41
-85.851089,2428.012939,-339.886566,44,46,50
-72.824867,2418.217529,-338.762817,41,45,49
-59.948772,2410.399902,-337.915283,54,59,63
-47.154106,2402.581299,-337.065979,58,62,68
-34.414848,2392.863037,-335.947418,67,74,78
-21.809530,2386.984131,-335.368134,71,76,81
-9.265319,2381.106445,-334.787842,59,63,69
3.221677,2377.129639,-334.474731,63,67,73
15.653704,2371.253906,-333.892517,62,68,74
28.073278,2369.253662,-333.857086,53,58,65
40.473698,2367.320557,-333.830811,51,57,64
52.897758,2367.264893,-334.070038,53,57,65
65.374542,2369.069092,-334.572815,49,55,62
77.873528,2370.949463,-335.086792,49,53,61
90.393059,2372.833008,-335.601654,30,33,42
103.019691,2376.681641,-336.395996,31,35,43
115.691132,2380.606445,-337.202087,49,53,61
128.748215,2390.825439,-338.904327,52,56,64
141.216949,2389.408203,-338.952148,9,4,9
153.533020,2385.864746,-338.696869,129,82,60
165.907547,2383.671631,-338.633331,163,106,81
178.530823,2385.061768,-339.080597,198,134,107
191.205093,2386.895264,-339.591431,222,156,126
203.629440,2385.595703,-339.655060,245,175,143
217.646164,2401.861084,-342.229919,224,187,170
315.468292,3283.374512,-468.615845,206,210,213
341.847168,3372.914062,-481.780426,207,209,211
