618.892090,2086.544434,655.520264,111,90,74
631.306824,2092.392578,657.097900,111,89,71
641.972961,2092.340332,656.824341,114,92,74
653.238281,2094.208984,657.152893,110,88,68
664.534424,2096.111816,657.491577,113,93,72
675.839355,2097.978760,657.818542,110,89,71
685.885498,2095.935547,656.921265,111,90,76
696.560791,2095.846924,656.635864,112,91,75
707.236206,2095.758545,656.350586,112,92,74
717.246582,2093.726807,655.458008,118,98,80
727.895508,2093.591064,655.158081,114,92,75
737.877747,2091.565186,654.267883,115,92,75
748.533752,2091.478516,653.983765,115,95,75
759.189636,2091.391602,653.699402,114,94,74
769.823669,2091.244873,653.396484,112,93,69
780.478760,2091.156738,653.111755,114,95,73
791.133911,2091.068359,652.827026,119,99,76
801.788208,2090.978027,652.541626,115,93,70
811.671204,2088.901123,651.637390,117,94,69
822.316284,2088.812744,651.353088,116,93,68
832.960266,2088.721924,651.067810,119,96,73
843.605225,2088.633789,650.783325,117,94,72
853.436646,2086.554932,649.879822,115,92,71
864.071411,2086.466797,649.595581,117,96,74
874.675659,2086.305664,649.288635,119,98,78
884.527344,2084.371582,648.431091,121,99,80
895.121643,2084.211914,648.124939,119,95,74
904.882080,2082.133789,647.223206,118,93,69
915.495483,2082.042969,646.938782,121,96,70
926.075439,2081.877441,646.631042,117,91,67
935.831055,2079.879883,645.755432,121,97,71
946.434021,2079.788574,645.471008,122,99,74
957.038269,2079.700439,645.187500,116,93,68
967.642578,2079.612549,644.904114,119,97,75
977.313354,2077.538330,644.005981,118,97,75
987.907471,2077.450195,643.722778,119,97,77
998.499939,2077.358643,643.438599,121,99,79
1009.093872,2077.270264,643.155212,116,94,74
1018.714050,2075.196777,642.258484,125,104,84
1029.295654,2075.104248,641.974121,118,99,74
1039.879517,2075.015869,641.691101,120,101,79
1049.512695,2073.048340,640.828003,121,99,79
1060.085449,2072.957031,640.544373,120,98,79
1070.660278,2072.870117,640.261963,125,101,84
1081.178711,2072.674805,639.946289,124,102,80
1091.752808,2072.587158,639.663696,122,101,79
1101.325195,2070.615234,638.800659,121,99,76
1111.834229,2070.425049,638.486694,116,94,72
1121.372559,2068.444336,637.621704,118,96,73
1131.922607,2068.349121,637.337341,117,94,69
1141.426270,2066.359131,636.470093,122,99,74
1151.972168,2066.274170,636.189026,124,101,78
1162.520142,2066.192871,635.909119,124,102,85
1173.066406,2066.108398,635.628418,119,96,81
1183.612183,2066.023682,635.347290,118,95,78
1194.151245,2065.926514,635.062561,120,96,77
1204.688110,2065.825928,634.776794,124,98,78
1214.051392,2063.729492,633.878784,122,97,75
1224.625000,2063.708740,633.617737,124,99,74
1232.812256,2059.697021,632.133606,116,92,69
1243.564941,2060.004883,631.973694,119,96,73
1256.672607,2064.176758,632.996765,114,92,71
-1093.993652,1961.309570,646.847595,224,196,143
-1094.022095,1979.239380,652.511902,218,190,136
-1091.716553,1993.235596,656.877380,215,187,133
-1090.857910,2010.161377,662.203064,211,183,133
-1089.309204,2026.121582,667.207153,208,181,131
-1088.131226,2043.081543,672.536011,204,177,129
-1086.781372,2060.041260,677.860535,200,173,127
-1085.746826,2077.933105,683.487244,198,170,124
-1083.565918,2093.958496,688.496765,195,168,122
-1091.451660,2129.958984,700.058411,190,162,118
-1088.807861,2145.909668,705.033203,187,160,116
-1083.989136,2157.849854,708.688477,185,157,114
-1078.053467,2167.786133,711.684143,180,152,112
-1069.058350,2171.708008,712.706177,160,133,96
-1059.045044,2173.622559,713.069519,160,131,96
-1047.130981,2171.634277,712.154175,164,137,103
-1035.181396,2169.531006,711.201843,165,138,102
-1023.247375,2167.418457,710.246948,164,137,99
-1011.302612,2165.238525,709.270386,166,139,101
-999.443054,2163.197998,708.339905,164,138,100
-988.494263,2163.108643,708.047791,166,141,106
-977.519714,2162.962158,707.737000,168,142,109
-966.569763,2162.869385,707.443787,168,142,112
-955.621277,2162.780518,707.151794,167,141,111
-944.671448,2162.688232,706.858765,167,142,109
-933.722290,2162.597656,706.566162,168,142,109
-922.797424,2162.563477,706.292114,165,140,105
-911.848450,2162.473633,705.999878,167,141,107
-900.874939,2162.325195,705.688293,166,141,104
-889.925598,2162.234131,705.395630,168,143,106
-879.001160,2162.204102,705.122803,164,139,105
-868.027405,2162.052979,704.810486,164,141,106
-857.078308,2161.961914,704.517883,164,140,107
-845.368958,2159.927734,703.593201,166,142,111
-834.429321,2159.836182,703.300598,166,139,111
-823.489746,2159.744385,703.007874,166,139,111
-812.529236,2159.597656,702.697327,164,137,109
-801.589661,2159.505615,702.404541,160,135,105
-790.650696,2159.415039,702.112183,163,139,108
-779.711670,2159.324219,701.819885,163,139,107
-768.772644,2159.233643,701.527588,163,137,105
-757.833740,2159.143066,701.235291,162,136,106
-746.894653,2159.052490,700.942932,163,137,106
-735.955627,2158.961426,700.650635,160,136,107
-725.670166,2160.818359,700.989258,159,135,106
-714.739502,2160.782227,700.714294,157,133,104
-703.156067,2158.743164,699.791016,157,133,104
-692.841125,2160.600830,700.129150,152,128,98
-681.891968,2160.510010,699.836548,156,132,102
-670.942871,2160.419189,699.543945,155,130,101
-659.993713,2160.328613,699.251404,154,130,101
-649.044922,2160.239014,698.959229,153,129,100
-638.095459,2160.147217,698.666199,152,128,99
-627.146606,2160.057617,698.374023,151,126,98
-616.211121,2160.014648,698.096985,147,123,94
-605.260925,2159.920654,697.803406,150,126,97
-594.299133,2159.785156,697.496277,148,123,95
-583.361450,2159.736816,697.217346,144,122,92
-572.411865,2159.645020,696.924438,147,125,95
-561.971619,2161.514160,697.263123,144,121,91
-551.012268,2161.423096,696.970276,145,121,92
-540.552368,2163.332031,697.321106,143,119,90
-529.583130,2163.242188,697.028320,140,118,90
-518.613770,2163.151367,696.735229,138,115,87
-508.122620,2165.099609,697.097717,138,116,87
-497.142700,2165.007812,696.804138,138,116,87
-486.611633,2166.916016,697.153015,138,116,86
-476.052368,2168.788086,697.489868,136,114,86
-465.052673,2168.697754,697.196167,138,114,88
-454.052826,2168.606689,696.902344,134,111,86
-443.053009,2168.515625,696.608398,133,110,85
-432.053009,2168.423340,696.314087,130,109,83
-421.043030,2168.280273,696.003479,128,106,81
-410.026917,2168.101318,695.681396,131,108,83
-399.007355,2167.899170,695.351868,130,107,84
-388.340668,2169.663574,695.652161,129,106,82
-378.358276,2175.473145,697.246582,128,105,82
-368.310394,2181.249023,698.828735,134,105,74
-358.849548,2190.974121,701.672791,234,211,188
-351.639679,2215.518066,709.251770,235,210,188
-348.618744,2268.968018,726.062439,231,205,184
-346.608765,2332.879639,746.201904,228,203,180
-346.392456,2413.819580,771.763611,226,200,174
-338.994385,2448.784180,782.629700,224,197,167
-331.578918,2486.283936,794.296265,225,197,165
-323.801453,2523.932617,806.001038,225,195,162
-315.887909,2563.582764,818.334778,227,195,165
-308.710480,2612.879150,833.733215,225,193,162
-301.717804,2668.241699,851.052307,226,194,162
-295.010284,2731.454102,870.857910,225,193,160
-287.072479,2788.949219,888.827759,219,191,152
-278.404327,2844.947754,906.307312,212,182,141
-271.255920,2923.469727,930.937927,199,170,131
-258.018127,2941.628906,936.355042,192,163,125
-243.580002,2947.499756,937.861450,196,167,131
-229.211685,2955.055176,939.901733,197,170,135
-213.918427,2950.922119,938.227417,200,172,139
-198.690948,2947.159912,936.672180,202,172,141
-183.753677,2947.462891,936.407715,202,173,142
-168.785675,2947.304443,935.997009,202,174,143
-153.802231,2946.843506,935.490112,202,174,143
-138.854950,2947.077637,935.203796,202,174,143
-123.971916,2948.927979,935.429504,202,174,143
-109.056435,2950.441406,935.548035,203,175,144
-94.081352,2950.607422,935.239380,203,175,144
-79.141129,2952.182861,935.377014,204,176,145
-64.154678,2952.425537,935.092529,203,175,144
-49.158588,2952.311768,934.695007,204,175,144
-34.162395,2952.198975,934.297974,205,175,146
-19.176928,2953.757568,934.429016,203,175,145
-4.172498,2953.988770,934.140564,204,176,146
10.841523,2955.852539,934.367188,203,175,147
25.858955,2955.796875,933.987793,203,175,147
40.902752,2957.597900,934.193970,203,175,145
55.937172,2957.868164,933.916992,204,176,146
71.006050,2959.407959,934.040039,204,176,148
86.101891,2961.293701,934.271973,205,176,149
101.218582,2963.191650,934.507080,204,176,148
116.352707,2965.010498,934.716614,205,177,149
131.499680,2966.672852,934.876770,206,178,149
146.669693,2968.434082,935.067322,211,181,152
161.845764,2969.955078,935.181946,214,183,154
176.993317,2970.715576,935.057251,219,186,158
192.216415,2972.506104,935.255676,221,188,155
207.435043,2973.953125,935.346008,223,191,153
222.585938,2974.280518,935.084290,226,194,155
237.712677,2974.248291,934.709473,226,194,159
252.959229,2975.614746,934.773621,221,191,158
268.126740,2975.932617,934.508240,216,188,155
283.431549,2977.649170,934.681580,212,184,153
298.573090,2977.548584,934.284851,210,182,152
313.876953,2978.988037,934.370667,210,182,154
328.843384,2977.226074,933.453491,210,182,154
343.978241,2977.066895,933.038269,209,181,153
359.348389,2978.862305,933.234985,209,181,153
374.460205,2978.446289,932.739258,210,181,154
389.606476,2978.315918,932.333069,209,181,154
404.790619,2978.465088,932.014099,211,182,156
420.181641,2980.062500,932.147583,210,181,156
435.339539,2979.942871,931.744507,210,181,156
451.049927,2983.479248,932.482910,210,181,155
466.275513,2983.673340,932.177307,210,181,154
481.454620,2983.558594,931.775085,210,182,154
497.293304,2987.408203,932.609375,210,182,152
512.543518,2987.589355,932.298950,209,181,151
528.398438,2991.177734,933.050293,208,180,150
543.971130,2993.004150,933.251831,208,180,150
559.904602,2996.656006,934.021301,206,178,147
574.842590,2994.917969,933.112244,204,174,143
590.496399,2996.898682,933.360535,202,172,141
604.516479,2990.686279,931.060181,200,168,136
618.726624,2985.690918,929.139709,194,162,129
628.734131,2961.126953,921.139465,202,170,137
623.242004,2866.388428,891.346252,223,195,159
588.944763,2646.476807,822.708496,240,214,182
576.382263,2531.943115,786.833130,242,216,185
561.240112,2411.334473,749.100891,240,214,182
559.490234,2352.232178,730.474121,239,215,187
556.746643,2291.515381,711.361450,238,213,189
556.083923,2241.685059,695.637268,238,212,193
554.980042,2192.116211,680.006409,242,220,206
554.882141,2148.399658,666.199829,239,222,206
557.450317,2116.502441,656.062378,122,95,77
564.999268,2104.378906,652.050842,107,87,69
573.524231,2096.274170,649.285339,106,86,68
583.082581,2092.172852,647.759521,108,88,70
594.289368,2094.029053,648.075562,110,90,72
604.966675,2093.982178,647.803406,109,89,71
616.216614,2095.883057,648.132751,107,87,70
628.070923,2099.738037,649.064636,113,90,76
639.372131,2101.641113,649.393372,111,89,70
650.693665,2103.543701,649.721436,111,90,69
661.420471,2103.490234,649.445862,110,88,66
672.761353,2105.357422,649.762451,111,90,70
683.487793,2105.269531,649.476135,110,90,73
694.213806,2105.180420,649.189453,113,93,75
704.939880,2105.091309,648.902710,113,93,75
715.665649,2105.001465,648.615845,112,92,74
726.374695,2104.863281,648.314087,111,90,70
736.421448,2102.833740,647.430786,120,98,80
746.449097,2100.806641,646.548828,117,95,75
757.155762,2100.719482,646.263123,115,95,72
767.842163,2100.576904,645.960571,114,95,71
778.548035,2100.488037,645.674438,116,97,74
789.253113,2100.397461,645.387756,117,95,75
799.958862,2100.308350,645.101624,117,96,75
810.664673,2100.219727,644.815491,118,95,74
821.370422,2100.130859,644.529358,117,95,74
832.050049,2099.975830,644.223022,122,99,80
841.983887,2097.963379,643.347839,124,101,82
852.652954,2097.809082,643.041992,121,99,79
862.556946,2095.796143,642.167419,118,96,76
873.242371,2095.707520,641.881775,121,99,78
883.089111,2093.628906,640.987915,116,95,75
893.764526,2093.540527,640.702637,119,98,78
904.407837,2093.377686,640.394775,114,91,67
914.246155,2091.374023,639.524536,120,97,72
924.911316,2091.285156,639.239563,123,98,74
935.575439,2091.194092,638.953674,119,95,68
945.342346,2089.119385,638.062866,122,99,72
956.871155,2090.941406,638.360535,117,96,68
966.651306,2088.939697,637.492554,117,97,69
977.306335,2088.851318,637.207825,121,101,75
987.021179,2086.773926,636.317444,119,98,74
997.666077,2086.685303,636.032837,119,97,72
1008.310791,2086.596680,635.748291,116,94,72
1018.955566,2086.508057,635.463684,114,91,68
1028.621582,2084.434814,634.575745,117,96,71
1039.256226,2084.346191,634.291443,122,101,78
1049.888672,2084.253418,634.005859,121,102,79
1060.523438,2084.164795,633.721558,127,106,84
1071.155151,2084.070801,633.435547,114,93,68
1080.814819,2082.103027,632.581177,121,100,75
1091.385864,2081.911377,632.265869,122,101,77
1101.011963,2079.935791,631.409790,120,99,78
1111.625244,2079.844238,631.125061,121,100,79
1122.237793,2079.751953,630.840088,124,103,82
1132.850464,2079.659668,630.555176,128,107,85
1142.371704,2077.581055,629.669067,121,99,72
1151.919922,2075.587891,628.809326,119,98,74
1163.581421,2077.405762,629.102295,111,92,72
1173.118286,2075.427002,628.247498,122,101,88
1183.714600,2075.341553,627.964966,117,96,82
1194.303711,2075.242432,627.678589,121,97,82
1204.890259,2075.139893,627.390991,110,86,66
1215.478394,2075.040527,627.104370,114,89,69
1224.932251,2073.020020,626.238220,122,99,77
1235.515137,2072.928467,625.954163,119,96,72
1244.931885,2070.896240,625.085266,118,96,71
1255.740845,2071.194336,624.918945,111,89,67
1268.695312,2074.997070,625.807922,116,94,72
-1092.516846,1948.759644,633.195190,225,196,143
-1089.282593,1960.612061,636.801941,221,193,139
-1089.288818,1978.573242,642.386230,215,187,134
-1086.947876,1992.561523,646.678833,213,184,133
-1085.546265,2008.551392,651.616089,209,182,132
-1093.563965,2042.448975,662.348572,207,180,131
-1092.275879,2059.434082,667.598145,202,175,127
-1090.274048,2075.386963,672.509583,198,171,123
-1089.149902,2093.338623,678.063721,197,169,123
-1087.844604,2111.291260,683.613647,195,167,121
-1086.318970,2129.168213,689.134827,189,161,115
-1083.634888,2145.108887,694.026123,185,158,112
-1078.826782,2157.123047,697.645142,183,155,112
-1074.812134,2170.987305,701.858582,178,150,107
-1068.816772,2181.093750,704.855957,153,124,85
-1058.753906,2183.020020,705.211853,158,130,92
-1047.650391,2182.819092,704.881287,160,133,97
-1034.740845,2178.810303,703.323364,159,132,94
-1022.725586,2176.622559,702.353027,163,137,99
-1010.801208,2174.584473,701.431396,162,136,97
-999.763916,2174.434326,701.118225,165,137,102
-988.753967,2174.343018,700.824036,165,139,107
-976.867920,2172.302490,699.902527,163,137,106
-965.867126,2172.209717,699.608093,165,139,107
-954.865906,2172.116211,699.313416,165,140,105
-943.866333,2172.026123,699.019775,168,143,108
-932.844788,2171.885010,698.709839,164,139,103
-921.867065,2171.845947,698.432617,166,141,105
-910.844543,2171.701416,698.121582,166,141,105
-899.845398,2171.611816,697.828125,164,139,102
-888.845398,2171.520264,697.534058,165,142,105
-877.845032,2171.427734,697.239624,163,140,106
-866.868042,2171.393555,696.964111,163,139,107
-855.079163,2169.300293,696.028564,164,138,106
-844.845520,2171.154297,696.357849,163,137,107
-833.097778,2169.114502,695.440063,162,136,106
-822.088135,2168.970947,695.129639,166,139,111
-811.098328,2168.879883,694.835938,162,136,105
-800.128540,2168.842773,694.559448,158,133,102
-789.118408,2168.696289,694.248169,160,136,105
-778.128784,2168.605469,693.954590,160,135,103
-767.139099,2168.514160,693.660767,161,135,104
-756.149414,2168.423340,693.367249,159,133,103
-745.159729,2168.332275,693.073608,155,131,100
-734.187683,2168.293457,692.796570,158,134,105
-723.830505,2170.100586,693.108459,162,138,109
-712.207458,2168.110352,692.208923,156,131,103
-701.847778,2169.969238,692.536743,157,133,103
-690.847900,2169.877930,692.242798,155,131,101
-679.848083,2169.786865,691.948914,153,129,100
-668.848145,2169.695557,691.654785,154,129,101
-657.848694,2169.605469,691.361328,152,128,99
-646.848572,2169.513428,691.067017,152,128,100
-635.862549,2169.469238,690.788025,150,126,97
-624.862183,2169.377441,690.493774,150,126,97
-613.849426,2169.240967,690.185547,148,124,95
-602.861328,2169.192383,689.905029,145,123,95
-591.860901,2169.099609,689.610657,146,124,96
-580.860535,2169.007568,689.316406,146,124,95
-569.860229,2168.915039,689.022095,143,121,91
-559.365295,2170.785156,689.350098,143,119,90
-548.364746,2170.731445,689.067871,143,121,92
-537.840149,2172.602783,689.395508,143,119,92
-526.819946,2172.511475,689.100952,141,116,90
-516.274414,2174.420166,689.439697,139,116,89
-505.244385,2174.329346,689.145203,139,116,89
-494.222260,2174.273926,688.861877,137,115,86
-483.627747,2176.145264,689.187866,137,115,84
-472.587463,2176.054688,688.893066,134,112,81
-461.970917,2177.962646,689.229919,133,110,83
-450.920258,2177.870361,688.934448,136,113,88
-439.869720,2177.778809,688.639160,133,112,88
-428.809296,2177.636963,688.327942,127,104,81
-417.373993,2175.536865,687.398987,131,108,85
-406.319244,2175.366699,687.079102,131,108,82
-395.260406,2175.169678,686.750977,131,108,85
-384.552002,2176.952393,687.046570,128,105,82
-374.503510,2182.693604,688.588928,124,103,81
-365.365051,2194.259521,691.964050,156,125,94
-356.557220,2208.606445,696.211853,236,211,188
-352.686859,2255.485840,710.693359,235,208,186
-352.502441,2329.891357,733.821777,231,206,182
-348.047119,2380.237061,749.366760,230,203,177
-340.378876,2411.430908,758.879761,226,200,170
-332.611359,2444.227051,768.888672,226,198,166
-325.582245,2485.209229,781.460266,226,196,164
-317.521759,2521.306152,792.488281,227,196,164
-309.524292,2560.963379,804.624756,228,196,165
-308.903442,2667.847656,837.840210,228,196,165
-302.540833,2732.646240,857.832581,229,197,165
-295.142975,2793.874512,876.690002,225,194,159
-286.841766,2852.304932,894.655640,219,190,152
-277.758301,2908.759766,911.988342,212,181,141
-266.999878,2953.031006,925.492493,199,170,130
-254.340179,2980.291504,933.662109,192,163,125
-240.030029,2990.442627,936.472473,195,166,131
-225.593765,3000.303711,939.189941,196,169,136
-210.078415,2996.211914,937.543152,199,171,138
-194.736176,2994.164307,936.536011,199,171,137
-179.523148,2993.946777,936.101135,202,172,139
-164.210587,2991.897705,935.094360,201,174,140
-148.928513,2990.069336,934.156921,201,173,140
-133.725449,2989.622070,933.650635,201,173,142
-118.617203,2991.484375,933.864990,202,174,141
-103.430618,2991.664551,933.554321,202,174,143
-88.231689,2991.531006,933.145752,203,175,143
-73.130363,2995.393799,933.981995,203,174,143
-57.911629,2995.276367,933.578186,204,174,143
-42.693493,2995.209229,933.189697,203,174,143
-27.489594,2996.759521,933.304626,203,174,145
-12.255074,2994.982666,932.384399,203,174,145
2.966300,2996.850830,932.597656,203,175,145
18.207602,2998.665283,932.793945,202,174,144
33.447502,2998.585693,932.401062,203,174,145
48.719391,3000.447510,932.611206,203,174,145
64.011536,3002.312256,932.821716,203,175,146
79.324242,3004.188721,933.035339,204,175,147
94.646904,3005.734863,933.146179,203,175,147
109.998680,3007.612793,933.359253,203,175,145
125.302643,3007.852783,933.064392,203,175,145
140.669312,3009.354980,933.160339,205,177,147
155.988190,3009.614746,932.871338,207,179,150
171.402512,3011.483643,933.080261,210,180,151
186.813217,3012.968750,933.169678,212,182,152
202.286987,3015.147705,933.473511,213,184,151
217.621368,3015.069824,933.078979,214,184,150
233.082687,3016.628418,933.190369,213,183,151
248.421875,3016.495361,932.778687,213,183,152
263.787201,3016.659424,932.458618,212,182,151
279.284515,3018.221436,932.570068,211,181,150
294.633514,3018.086670,932.157532,209,180,149
309.981903,3017.947266,931.743591,207,179,150
325.540283,3019.757324,931.930603,207,179,151
340.711334,3017.960693,931.005676,207,178,151
356.291016,3019.772705,931.192993,207,179,150
371.411011,3017.687744,930.179688,207,178,149
386.976868,3019.238770,930.285889,208,179,152
402.341156,3019.148193,929.886902,208,179,152
417.701385,3019.025391,929.477844,208,180,152
433.061829,3018.904053,929.069214,208,180,152
448.716766,3020.765381,929.269897,208,179,153
464.392548,3022.630615,929.471375,207,179,151
479.772858,3022.505859,929.061096,207,179,149
495.811554,3026.401855,929.885193,208,179,150
511.585419,3028.486084,930.152283,208,178,149
527.643982,3032.077637,930.881226,206,178,149
543.437500,3033.977295,931.090393,207,177,146
559.626221,3037.910645,931.922485,204,174,143
574.719421,3035.836182,930.913086,202,172,141
589.801147,3033.804688,929.917358,200,170,139
605.659668,3035.765381,930.143982,197,166,134
620.251160,3031.427246,928.442932,192,161,128
625.298401,2981.759521,912.879333,197,166,133
611.824219,2848.179443,871.674255,217,186,150
576.530701,2621.520996,802.058044,239,209,177
569.262512,2529.745605,773.700439,245,217,190
568.720032,2471.276855,755.535339,244,217,188
567.546875,2412.656250,737.338440,242,216,186
565.282166,2351.976318,718.527649,238,213,185
562.645081,2292.297363,700.037048,239,212,188
561.060730,2239.249756,683.582703,239,213,193
550.171570,2151.897705,656.687744,239,214,197
553.316040,2121.813477,647.258606,211,189,165
560.933655,2109.716309,643.313599,109,88,70
570.051453,2103.611328,641.195435,107,87,68
579.664551,2099.523438,639.692444,105,85,67
590.358276,2099.427246,639.404175,110,90,72
601.610718,2101.283447,639.709717,108,88,70
612.896484,2103.186035,640.028687,109,89,70
624.202393,2105.088135,640.347046,110,90,74
636.728638,2110.971680,641.873779,109,89,70
648.095520,2112.873535,642.190552,109,88,68
659.482544,2114.775146,642.506775,111,90,66
670.259338,2114.686035,642.218933,110,89,65
681.036255,2114.596680,641.930908,111,90,69
691.813049,2114.507568,641.643127,112,92,72
703.237976,2116.369873,641.946167,112,92,74
713.366638,2114.328857,641.067139,111,91,72
724.143127,2114.238770,640.778870,112,92,71
734.903625,2114.102295,640.476624,111,90,68
744.995483,2112.070801,639.601379,117,96,72
755.762146,2111.981445,639.313599,114,94,68
766.528748,2111.892334,639.025879,113,92,68
776.563599,2109.813232,638.137207,110,91,66
787.320007,2109.724121,637.849792,114,94,71
798.076599,2109.634521,637.562317,115,93,72
808.832275,2109.543457,637.274353,113,91,71
819.565674,2109.394775,636.968872,115,93,73
830.345276,2109.365234,636.699463,119,96,79
840.308960,2107.286377,635.812500,124,101,85
851.029663,2107.133789,635.506226,118,95,79
861.774414,2107.041504,635.218079,115,91,71
871.724976,2105.030273,634.352478,118,95,73
882.432251,2104.872314,634.044861,117,96,74
892.353882,2102.863037,633.180603,115,94,72
903.079895,2102.773926,632.893982,118,96,75
913.774658,2102.613281,632.585693,116,94,70
923.658142,2100.607422,631.723511,117,94,70
934.372925,2100.515869,631.436340,118,95,70
944.195801,2098.441162,630.554077,117,94,68
954.900391,2098.349609,630.267151,119,98,72
965.606201,2098.260986,629.981079,117,96,69
975.388733,2096.186523,629.099976,118,97,73
987.017761,2098.083252,629.408875,120,101,74
996.778687,2096.006348,628.527527,119,98,71
1007.474060,2095.917236,628.241577,114,93,66
1018.169617,2095.828369,627.955688,122,98,75
1027.933228,2093.839844,627.101685,124,102,80
1038.620605,2093.754150,626.816956,115,93,73
1049.308105,2093.668457,626.532227,109,90,70
1059.945312,2093.483643,626.218079,119,99,77
1070.628418,2093.390137,625.931030,120,100,73
1080.340698,2091.416504,625.082886,118,98,66
1091.016846,2091.328613,624.797729,120,100,70
1101.692139,2091.239014,624.512085,117,96,73
1111.312988,2089.166016,623.635315,118,97,75
1121.976440,2089.073486,623.349060,118,96,76
1132.635742,2088.972656,623.060364,116,94,74
1142.256958,2086.974854,622.206970,120,101,77
1152.867554,2086.804932,621.897827,120,99,75
1163.567993,2086.796875,621.637024,119,97,75
1174.227661,2086.715332,621.354309,118,96,79
1184.888428,2086.635498,621.072021,112,89,74
1195.543457,2086.545410,620.786804,114,89,72
1205.048096,2084.464111,619.910217,117,94,75
1216.841064,2086.344238,620.210022,114,89,68
1225.185791,2082.325439,618.759033,122,98,77
1236.959839,2084.156006,619.043945,119,96,72
1245.334595,2080.272217,617.634155,120,100,74
1257.344482,2082.477539,618.029907,112,91,67
1269.900024,2085.540527,618.679077,111,90,66
-1093.428467,1958.091187,626.412903,222,194,140
-1094.036743,1977.030640,632.221802,218,190,137
-1091.729858,1991.000122,636.439697,215,187,135
-1091.428833,2008.924683,641.915955,210,183,131
-1089.883545,2024.873291,646.757629,207,180,130
-1088.694092,2041.792358,651.904907,206,178,132
-1087.348633,2058.740723,657.057251,202,174,127
-1085.307129,2074.685791,661.885986,198,170,124
-1084.108887,2092.571533,667.328613,195,168,120
-1090.973877,2126.538086,677.885864,189,162,115
-1087.364258,2140.547119,682.084351,184,156,109
-1084.545654,2156.412109,686.869690,185,157,112
-1081.601562,2172.348389,691.673889,183,155,111
-1076.522583,2184.277832,695.200378,179,151,109
-1069.364990,2192.191895,697.448425,161,132,94
-1059.224976,2194.091064,697.784363,151,124,86
-1047.207275,2192.099365,696.884277,152,125,87
-1034.257446,2188.093994,695.345642,163,136,99
-1022.195435,2185.903809,694.383911,162,135,98
-1010.222168,2183.860352,693.469177,166,139,104
-999.137878,2183.717285,693.157227,160,135,100
-987.193909,2181.671875,692.242676,164,138,107
-977.015991,2183.532471,692.565674,167,140,108
-965.955750,2183.441895,692.270508,164,139,106
-954.895081,2183.350342,691.974915,164,138,102
-942.988953,2181.301514,691.060242,162,137,101
-931.938660,2181.210938,690.765259,164,139,102
-921.712585,2183.073975,691.087891,164,139,103
-910.651794,2182.982178,690.792236,163,138,102
-898.789978,2180.945068,689.882263,164,138,104
-888.530579,2182.798828,690.201111,164,138,105
-877.469788,2182.707031,689.905518,163,139,108
-865.637695,2180.670654,688.996399,165,140,109
-854.585876,2180.576416,688.700256,163,137,107
-843.535095,2180.484863,688.404907,165,139,108
-832.463440,2180.338867,688.092468,162,136,106
-820.679382,2178.298828,687.183350,163,137,106
-809.638794,2178.207520,686.888306,161,135,103
-798.598083,2178.115723,686.593262,161,136,105
-787.557312,2178.023926,686.298096,160,137,105
-776.497864,2177.879639,685.986511,158,135,102
-766.160339,2179.789307,686.320740,158,134,103
-755.109802,2179.697754,686.025452,156,132,101
-744.059265,2179.605957,685.730164,158,134,103
-732.353455,2177.564697,684.822449,157,133,104
-721.958252,2179.423096,685.139587,154,130,100
-710.907837,2179.331543,684.844299,155,131,100
-699.872742,2179.288086,684.564026,155,131,100
-688.822083,2179.197266,684.269043,156,132,102
-677.756592,2179.058105,683.958740,156,131,103
-667.317322,2180.965576,684.289856,153,129,101
-655.669373,2178.920898,683.382690,154,130,102
-644.618408,2178.828613,683.087097,153,128,102
-633.567383,2178.736084,682.791504,150,125,97
-622.503906,2178.600098,682.482300,148,124,95
-612.014038,2180.507324,682.812073,150,125,99
-600.413879,2178.456543,681.904175,147,123,97
-589.892761,2180.323975,682.221008,146,123,97
-578.832336,2180.233154,681.925659,145,120,95
-567.771667,2180.141602,681.630127,144,120,93
-556.719971,2180.085205,681.345581,142,118,91
-545.659363,2179.994385,681.050293,141,116,89
-535.079590,2181.865967,681.366882,142,120,93
-524.017517,2181.810059,681.082397,141,116,92
-513.416199,2183.717529,681.409363,139,116,91
-502.335144,2183.625732,681.113281,138,115,88
-491.703491,2185.533203,681.439697,136,114,83
-480.612518,2185.442383,681.143677,134,112,82
-469.942444,2187.312500,681.457825,136,114,85
-458.841034,2187.219727,681.160889,134,111,85
-447.739868,2187.127930,680.864258,132,109,86
-436.638611,2187.035889,680.567627,132,109,86
-425.527618,2186.893799,680.255371,127,104,79
-414.031921,2184.717041,679.311401,130,107,82
-402.923309,2184.526367,678.984375,127,104,80
-391.829193,2184.410889,678.680664,128,105,82
-381.430176,2188.284180,679.614136,128,105,82
-371.307831,2194.031494,681.127625,124,103,82
-360.795319,2197.761230,682.014282,221,191,164
-351.506866,2209.433594,685.360535,236,210,186
-346.595245,2250.316406,697.748901,235,208,184
-346.890228,2328.967041,721.817383,231,204,178
-346.514618,2408.506592,746.141479,228,202,173
-339.121338,2443.275635,756.599365,228,200,169
-331.998474,2482.713135,768.492126,228,199,166
-324.266266,2520.530518,779.874329,228,199,164
-316.374512,2560.168945,791.809998,228,198,165
-309.229095,2609.513184,806.732788,230,201,168
-302.278473,2664.999756,823.539429,230,200,169
-295.990356,2731.810791,843.826660,230,200,168
-288.641418,2794.923096,862.956665,226,194,162
-280.577240,2857.282471,881.838745,221,190,153
-277.286560,2977.740234,918.610535,211,181,140
-265.302643,3013.314209,929.203613,200,169,129
-251.347626,3029.487305,933.813782,191,162,124
-236.909698,3041.583008,937.165161,194,165,130
-221.313873,3039.474121,936.142578,198,168,135
-206.260727,3045.082031,937.494141,198,169,136
-190.563171,3041.330322,935.966736,199,170,137
-174.999542,3039.266357,934.958862,199,172,138
-159.553223,3039.063721,934.523193,201,171,138
-144.014038,3036.885742,933.481140,202,172,139
-128.593277,3037.013916,933.147400,201,173,139
-113.225113,3038.623535,933.268127,201,173,139
-97.783150,3038.488525,932.853333,202,174,140
-82.341454,3038.360107,932.440552,201,174,140
-66.943810,3040.233398,932.641235,202,172,140
-51.492626,3040.145020,932.240356,203,173,142
-36.061012,3041.742188,932.355896,202,173,142
-20.600210,3041.616699,931.943481,201,174,142
-5.143158,3043.732910,932.217041,203,175,145
10.329079,3043.605713,931.803955,202,174,144
25.818169,3045.465332,931.998108,202,174,144
41.303810,3045.580078,931.658875,201,173,142
56.788010,3045.485352,931.255188,202,174,143
72.313202,3047.104004,931.374878,202,174,144
87.863350,3048.972656,931.570557,202,174,144
103.424454,3050.564697,931.681152,202,174,144
118.947311,3050.727295,931.355347,203,175,145
134.623352,3054.299316,932.069153,203,175,145
150.169708,3054.466797,931.744263,203,175,146
165.808609,3056.285156,931.922363,205,177,148
181.354156,3056.195557,931.518860,205,177,148
197.025360,3058.051025,931.707581,207,179,149
212.714813,3059.878662,931.887146,207,179,149
228.278564,3059.753906,931.472473,209,178,150
243.844727,3059.658691,931.067078,208,178,150
259.408112,3059.526611,930.650208,208,177,150
275.125885,3061.111084,930.754639,208,177,148
290.725433,3061.268555,930.425598,207,176,148
306.471497,3062.861816,930.532166,205,177,147
322.053558,3062.727783,930.114258,204,176,148
337.442810,3060.844971,929.166016,205,177,149
353.217773,3062.462402,929.279297,205,177,149
368.800659,3062.336670,928.863831,204,176,148
384.163940,3060.460449,927.918335,206,178,149
399.965546,3062.077393,928.030762,205,177,148
415.548645,3061.952637,927.615784,205,177,148
431.132660,3061.833740,927.202515,205,177,148
447.006104,3063.699219,927.389282,206,177,149
462.899567,3065.562500,927.575012,206,178,148
478.507446,3065.465332,927.167603,205,177,147
494.431061,3067.325684,927.351685,204,176,145
510.374603,3069.184570,927.534729,205,175,145
526.336609,3071.031982,927.713867,205,175,144
542.668152,3074.860840,928.490112,205,175,144
558.689148,3076.756104,928.682434,202,172,141
575.119751,3080.735596,929.502441,201,171,140
590.437500,3078.691162,928.506653,199,169,137
605.738342,3076.660645,927.515320,196,166,133
619.955139,3069.355957,924.936646,192,160,128
630.910828,3046.649658,917.725342,191,160,125
634.976990,2992.544678,901.074768,212,181,146
609.055908,2802.900635,843.684692,235,205,174
578.760620,2602.273193,783.040405,246,219,189
575.500549,2529.537598,760.867554,247,220,192
561.546326,2413.989258,725.855713,244,217,189
559.319092,2352.757080,707.177063,241,216,187
556.490173,2291.615479,688.540710,237,211,185
554.971680,2238.275879,672.259460,237,209,187
554.432007,2190.954834,657.795776,238,210,189
555.863464,2153.142578,646.193420,235,210,186
559.995483,2127.057861,638.113525,112,91,76
568.148254,2116.954590,634.825439,103,83,64
577.294189,2110.858887,632.739441,107,87,69
587.490784,2108.757568,631.849915,108,89,70
598.801025,2110.656250,632.157288,104,84,65
610.119751,2112.514160,632.451904,105,85,69
622.055420,2116.405029,633.353455,108,88,70
633.437195,2118.306152,633.659790,108,88,71
644.850098,2120.242920,633.976257,106,85,67
656.876526,2124.097900,634.864685,109,87,66
667.714783,2124.042236,634.585571,109,88,65
678.542358,2123.952637,634.296265,108,87,65
689.370361,2123.863770,634.007141,110,89,67
700.842041,2125.728760,634.300232,112,93,71
711.014099,2123.649658,633.418213,113,94,70
721.841492,2123.560059,633.128906,115,95,73
732.653503,2123.425049,632.826050,117,96,72
743.479614,2123.332031,632.535828,111,90,65
753.617615,2121.301025,631.669250,115,95,67
764.435059,2121.211426,631.380188,114,93,66
775.252258,2121.121582,631.091125,114,93,65
786.069763,2121.032227,630.802124,115,95,67
796.160583,2119.007812,629.938782,116,95,71
806.947449,2118.863770,629.633789,117,96,75
817.753845,2118.772217,629.344421,114,93,73
828.561035,2118.682617,629.055542,117,95,75
838.580933,2116.604248,628.177490,114,92,74
849.377869,2116.514648,627.888916,118,95,79
860.174927,2116.425293,627.600342,115,93,73
870.154053,2114.346924,626.723206,114,91,70
880.940918,2114.257324,626.434937,116,95,71
890.889832,2112.179688,625.558716,114,92,69
901.666504,2112.090088,625.270691,117,96,74
912.412842,2111.930420,624.961853,120,98,79
922.351379,2109.923096,624.107422,119,98,77
933.118103,2109.833984,623.819702,113,91,70
943.884521,2109.744629,623.531860,116,96,74
954.650146,2109.652832,623.243469,119,98,74
964.508850,2107.578369,622.370361,118,97,73
975.265320,2107.489014,622.082886,120,99,73
986.020569,2107.397217,621.794739,113,93,65
995.873474,2105.396240,620.944214,113,91,61
1006.620544,2105.308350,620.657349,110,90,64
1017.329956,2105.142090,620.347412,118,95,71
1028.076172,2105.052490,620.060120,120,98,77
1038.822266,2104.963135,619.772888,123,101,80
1048.622192,2102.974609,618.927612,121,100,80
1059.360107,2102.888184,618.641418,113,94,70
1070.096313,2102.798096,618.354187,119,100,75
1080.786011,2102.617432,618.040466,111,91,60
1090.543091,2100.641602,617.199890,114,94,62
1101.266846,2100.547363,616.911621,116,95,68
1111.992188,2100.456299,616.624390,116,95,73
1121.704712,2098.468750,615.781616,117,95,75
1132.416504,2098.370605,615.492371,114,92,73
1143.126831,2098.270264,615.202576,117,98,75
1153.798828,2098.099609,614.892334,125,105,79
1164.514648,2098.010010,614.605713,116,95,69
1175.232056,2097.923340,614.320007,113,92,71
1184.878418,2095.940430,613.479980,120,97,81
1195.586426,2095.854004,613.194641,122,98,84
1206.287109,2095.754639,612.905396,118,94,75
1216.985229,2095.651611,612.615173,114,91,70
1227.684937,2095.551270,612.325684,113,90,67
1237.210693,2093.463379,611.456482,113,91,64
1247.940063,2093.429932,611.186890,113,91,66
1257.466675,2091.394287,610.333557,112,92,66
1268.383789,2091.685791,610.158752,116,97,71
1282.193481,2096.704834,611.360046,114,93,68
-1091.984985,1945.623779,612.914612,224,196,142
-1088.723755,1957.396851,616.378601,220,192,138
-1088.750732,1975.357422,621.784424,219,190,140
-1086.946167,1990.294312,626.235962,213,184,135
-1086.062012,2007.213623,631.306335,211,182,134
-1094.143311,2041.190186,641.727234,209,179,134
-1092.843018,2058.133057,646.794739,204,177,133
-1090.844604,2074.073975,651.543701,201,173,127
-1088.683594,2090.013184,656.288147,198,171,125
-1086.360840,2105.951172,661.028320,193,166,119
-1083.843872,2121.825439,665.744690,192,164,117
-1080.215820,2135.819824,669.868347,187,160,112
-1077.383301,2151.687988,674.575195,184,156,110
-1075.412598,2169.620605,679.924194,183,156,111
-1082.095215,2205.572754,690.905884,178,152,108
-1073.836304,2211.482910,692.484436,164,135,96
-1064.552612,2215.385742,693.434021,159,132,96
-1052.423218,2213.383301,692.537354,155,128,92
-1038.387939,2207.286621,690.362671,152,126,91
-1027.205200,2207.193115,690.063660,160,135,98
-1015.101562,2205.097656,689.139771,161,135,101
-1003.041138,2203.053223,688.232300,164,138,106
-990.975891,2200.953857,687.308167,163,137,107
-979.821533,2200.856201,687.008484,162,136,104
-968.669189,2200.763428,686.710388,164,138,103
-957.517212,2200.671143,686.412476,163,138,102
-946.365540,2200.579834,686.114807,161,136,100
-936.045471,2202.446777,686.426453,165,140,105
-924.883362,2202.354004,686.128174,162,136,102
-912.912170,2200.310059,685.223022,161,135,101
-901.761047,2200.219971,684.925842,163,137,104
-890.609497,2200.129150,684.628296,162,137,104
-879.457458,2200.037109,684.330383,165,139,107
-868.304993,2199.943848,684.032227,162,136,104
-857.131836,2199.797607,683.717407,163,138,104
-845.979980,2199.705078,683.419434,162,136,104
-834.828064,2199.612793,683.121460,162,136,104
-823.675781,2199.519287,682.823120,158,132,100
-812.524170,2199.427490,682.525330,161,135,102
-800.662598,2197.385986,681.623535,161,137,106
-789.520020,2197.292480,681.325439,157,134,101
-778.360229,2197.149658,681.012146,158,135,102
-767.218506,2197.057617,680.714478,157,134,101
-756.094055,2197.015625,680.432190,159,135,104
-744.952332,2196.924316,680.134766,156,132,100
-734.460938,2198.781006,680.439392,160,136,105
-723.308960,2198.688477,680.141418,156,132,101
-712.157043,2198.595947,679.843384,152,129,96
-701.005127,2198.503418,679.545288,154,130,99
-689.853333,2198.411133,679.247375,155,130,101
-678.701294,2198.318359,678.949280,151,127,98
-667.549500,2198.226562,678.651367,152,128,101
-656.397522,2198.134033,678.353394,152,128,101
-645.246033,2198.042725,678.055725,151,126,100
-634.094116,2197.950439,677.757751,151,129,99
-622.953918,2197.899170,677.472473,148,125,98
-611.790222,2197.765381,677.161682,149,126,99
-600.638245,2197.672852,676.863647,145,121,96
-589.496216,2197.616943,676.576904,147,122,98
-578.860046,2199.486328,676.881653,145,120,96
-567.707153,2199.428955,676.594360,146,122,95
-557.041687,2201.301025,676.899231,141,116,90
-545.878174,2201.243408,676.611572,137,115,87
-534.705688,2201.150391,676.312866,140,117,90
-523.541809,2201.093262,676.025085,141,116,91
-512.369324,2201.000977,675.726624,136,112,85
-501.643646,2202.872070,676.029907,135,113,85
-490.461273,2202.780273,675.731384,133,111,81
-479.713593,2204.687012,676.044861,133,111,81
-468.937256,2206.554688,676.345825,132,109,82
-457.320648,2204.464600,675.435364,132,109,84
-446.128235,2204.372070,675.136353,132,109,86
-434.925537,2204.227539,674.821350,129,106,82
-423.720581,2204.068115,674.502014,130,108,82
-412.525085,2203.956299,674.197083,129,106,81
-401.315765,2203.767090,673.868591,122,99,73
-390.106750,2203.573975,673.538818,123,100,76
-378.912354,2203.460205,673.233398,124,101,78
-369.362396,2213.204590,675.934631,129,105,84
-359.059509,2218.910400,677.402161,237,212,188
-352.881012,2251.321289,687.006348,235,208,185
-351.230621,2315.780762,706.365234,234,207,182
-347.141541,2368.062256,722.000122,230,201,175
-340.350800,2404.997070,732.951050,229,201,170
-333.218506,2442.181885,743.968933,228,201,167
-326.001312,2481.600098,755.656860,228,200,165
-318.210846,2519.652100,766.919739,229,200,165
-310.465454,2561.272217,779.257446,229,202,168
-309.226044,2662.589600,809.718628,230,202,171
-302.962189,2727.912354,829.225586,230,204,172
-295.820435,2791.216309,848.103699,230,202,171
-288.727325,2861.383301,869.048401,228,199,167
-280.998413,2932.358643,890.220825,221,192,156
-272.925110,3007.492920,912.636658,211,181,140
-262.135925,3059.831787,928.126526,199,168,129
-249.194016,3092.057129,937.511169,191,160,123
-235.026108,3112.392822,943.287964,192,163,126
-220.335541,3128.254395,947.705383,195,166,131
-204.440750,3128.167480,947.294189,197,167,133
-188.546967,3128.104492,946.890198,198,169,136
-172.648376,3127.966064,946.463318,198,169,136
-156.735947,3127.551025,945.952820,199,169,136
-140.847443,3127.603516,945.583740,199,169,136
-124.950058,3127.480225,945.161377,198,171,135
-109.113426,3129.102783,945.265991,198,171,135
-93.206711,3128.970215,944.840759,200,172,137
-77.354774,3131.055420,945.084290,199,172,138
-61.436951,3130.928955,944.660583,200,173,139
-45.547688,3132.773682,944.830750,201,173,142
-29.619961,3132.673096,944.414612,200,172,141
-13.700379,3134.509521,944.581543,200,172,141
2.237988,3134.630127,944.231812,200,172,141
18.187733,3136.270752,944.338989,201,173,142
34.136185,3136.135742,943.911926,198,170,139
50.116417,3137.993652,944.083801,201,173,142
66.075554,3137.887695,943.665344,201,173,141
82.086266,3139.745117,943.836426,200,172,142
98.055252,3139.617432,943.411194,201,172,143
114.095512,3141.451904,943.574585,200,171,142
130.075577,3141.349365,943.156555,200,172,142
146.147003,3143.204834,943.325562,202,174,144
162.226624,3144.827637,943.424316,202,174,144
178.237564,3144.922852,943.065125,202,174,145
194.357788,3146.752686,943.225281,204,176,148
210.501404,3148.631592,943.399597,204,176,146
226.520920,3148.500488,942.971985,203,175,147
242.676727,3150.139160,943.073608,204,175,148
258.723694,3150.232178,942.712891,205,175,148
274.753448,3150.098389,942.284363,205,174,148
290.784912,3149.986572,941.862305,204,174,147
306.811920,3149.826172,941.425598,205,174,147
323.023010,3151.465088,941.526123,203,174,146
339.083710,3151.537842,941.159058,202,174,146
355.123169,3151.404297,940.730225,203,174,147
371.163269,3151.275635,940.302917,202,174,145
387.177338,3150.934814,939.812195,202,174,145
403.219086,3150.826416,939.390869,203,175,145
419.258606,3150.699951,938.964355,203,175,145
435.543152,3152.347412,939.065430,202,174,145
451.342285,3150.477783,938.120117,202,174,142
467.415588,3150.576660,937.760498,203,175,143
484.026611,3154.165527,938.438049,203,175,144
500.090424,3154.062256,938.017761,202,173,142
517.154785,3160.074463,939.413635,204,174,143
533.245117,3159.940430,938.983643,202,172,142
550.031189,3163.809814,939.741272,202,172,139
566.502441,3165.691162,939.908508,200,170,137
583.375122,3169.642822,940.688904,198,168,135
599.168762,3167.667480,939.711670,197,167,134
613.326660,3157.363281,936.267761,193,163,130
629.459106,3157.489014,935.914795,191,159,127
642.827942,3144.079102,931.555298,189,158,124
632.233154,3016.911621,893.541077,205,174,140
588.805786,2742.763184,812.089233,226,196,167
569.731995,2592.208008,767.242065,244,218,185
568.639771,2528.482422,748.090698,249,223,192
569.084290,2474.266602,731.763733,246,218,189
567.535950,2413.918701,713.639709,242,215,189
565.562195,2354.359863,695.763550,237,210,186
562.497070,2292.824951,677.319031,235,208,184
560.444092,2237.839600,660.821106,232,205,181
552.106689,2160.440186,637.729919,231,206,181
557.391602,2138.365479,630.958679,125,94,78
566.161682,2130.258545,628.306458,103,84,69
575.934265,2126.157471,626.835388,107,87,70
586.752869,2125.997314,626.525085,106,87,70
597.604675,2125.958008,626.250366,111,91,74
609.566101,2129.796143,627.115662,105,85,67
621.003174,2131.695801,627.410217,107,87,69
633.050171,2135.585449,628.289062,107,89,72
645.737000,2141.463867,629.750549,107,87,68
657.254578,2143.327393,630.032471,108,86,68
668.803528,2145.227539,630.324463,110,87,69
679.753174,2145.171387,630.042236,111,90,69
690.063354,2143.126221,629.177002,114,93,71
700.992615,2143.036621,628.885193,115,94,70
711.910034,2142.910645,628.582825,110,90,66
722.838806,2142.820068,628.290771,108,89,65
733.767395,2142.728516,627.998474,112,93,68
744.681091,2142.594238,627.693726,109,88,62
754.924072,2140.558350,626.832703,110,89,61
765.149048,2138.527344,625.973877,113,91,62
776.058228,2138.438232,625.682739,113,93,62
786.949280,2138.299072,625.376953,121,101,73
797.857849,2138.208740,625.085388,115,95,67
808.766418,2138.118164,624.793945,109,91,62
819.674316,2138.026123,624.502014,117,96,70
829.811646,2135.949219,623.631226,114,92,71
840.709351,2135.856934,623.339417,112,91,71
851.583252,2135.705078,623.030273,119,98,78
861.704590,2133.689941,622.178650,118,95,76
872.592102,2133.597656,621.887146,115,91,72
883.452942,2133.440918,621.576843,121,98,75
894.340271,2133.349121,621.285461,112,90,66
904.413940,2131.338867,620.436340,115,93,68
914.439087,2129.260986,619.568237,114,93,70
925.307068,2129.170898,619.277771,115,94,73
936.174927,2129.080566,618.987244,120,98,79
947.010559,2128.917480,618.675659,115,93,75
957.017273,2126.913086,617.829895,117,96,76
967.875305,2126.823242,617.539795,116,97,74
978.699036,2126.658691,617.228088,120,99,75
988.667053,2124.656250,616.383911,111,90,64
999.514771,2124.566162,616.093994,112,91,66
1010.362488,2124.476074,615.804138,119,97,76
1021.208862,2124.383789,615.513489,123,101,81
1032.019897,2124.218018,615.201721,118,96,76
1042.903809,2124.202637,614.933472,114,92,73
1052.766602,2122.125977,614.069397,111,89,69
1063.604004,2122.035645,613.779846,123,101,80
1074.441406,2121.945557,613.490051,118,97,73
1084.310059,2119.959717,612.653381,120,99,73
1095.138550,2119.871582,612.364441,111,89,59
1105.966797,2119.782471,612.075256,122,99,72
1116.745605,2119.599365,611.759033,117,95,72
1127.572998,2119.509766,611.469727,118,95,74
1137.380981,2117.520508,610.633484,116,93,74
1148.194336,2117.422607,610.342041,123,101,80
1159.010376,2117.330078,610.052124,116,95,72
1169.827759,2117.239990,609.762878,115,94,70
1179.583618,2115.244873,608.926147,122,101,81
1190.394897,2115.160889,608.638977,121,98,79
1201.207153,2115.079346,608.352417,105,81,64
1212.016602,2114.991943,608.064270,117,93,76
1222.772461,2114.812256,607.749573,116,92,71
1233.616699,2114.785156,607.478699,118,94,74
1243.244873,2112.689697,606.614807,118,94,70
1255.182373,2114.521973,606.876953,119,96,73
1264.888916,2112.592285,606.061035,116,97,73
1276.957031,2114.607422,606.375183,116,97,74
1289.319580,2117.071045,606.817078,115,94,73
-1092.828735,1954.815063,605.999634,222,194,141
-1093.489136,1973.809204,611.637329,219,191,139
-1091.708984,1988.704590,616.002625,216,187,138
-1091.434814,2006.648315,621.306641,214,184,137
-1089.899658,2022.588013,625.987061,208,179,134
-1088.722168,2039.500488,630.964050,205,177,134
-1086.858032,2055.437988,635.635742,203,175,132
-1085.878784,2073.375000,640.920593,202,172,129
-1082.642334,2087.307373,644.965576,197,169,124
-1089.509888,2121.200684,655.163391,191,164,116
-1085.887329,2135.127686,659.197510,190,161,114
-1083.129761,2151.054932,663.844482,183,155,109
-1081.206543,2168.980957,669.103210,184,157,111
-1080.053223,2188.836426,674.951721,178,152,106
-1076.814087,2204.830811,679.606995,177,149,106
-1070.476685,2214.747070,682.387939,162,133,94
-1063.079590,2222.657471,684.549622,153,126,90
-1051.855469,2222.645996,684.273987,159,132,96
-1039.656982,2220.554443,683.358704,159,132,95
-1027.475952,2218.456543,682.442261,162,136,98
-1014.425781,2214.416504,680.929810,156,131,96
-1002.292603,2212.313477,680.012878,158,132,100
-990.181274,2210.213867,679.097534,162,136,105
-978.977844,2210.119385,678.797791,162,134,101
-967.774719,2210.025879,678.498230,161,135,101
-956.572144,2209.933594,678.198914,162,135,101
-945.369568,2209.841309,677.899719,162,137,102
-934.168457,2209.752441,677.601624,162,137,102
-923.782043,2211.615234,677.900940,162,136,104
-911.764771,2209.571533,677.004395,162,137,104
-900.562744,2209.480469,676.705566,163,137,105
-889.360168,2209.388672,676.406433,163,138,105
-878.157349,2209.295898,676.107239,163,138,103
-866.954285,2209.202637,675.807617,157,132,97
-855.750610,2209.107422,675.507568,161,135,101
-844.547485,2209.013672,675.208008,162,136,102
-833.325989,2208.871582,674.893677,159,134,99
-822.123535,2208.779053,674.594299,160,135,101
-810.205383,2206.736084,673.700439,160,134,101
-799.012695,2206.643311,673.401367,157,131,99
-787.802429,2206.501465,673.087280,161,135,103
-776.610046,2206.408691,672.788208,156,133,100
-766.110046,2208.313232,673.097046,157,134,101
-754.241760,2206.272217,672.204834,157,134,101
-743.049561,2206.180908,671.906250,157,133,100
-731.856873,2206.088135,671.607117,155,132,99
-721.299988,2207.942871,671.899963,155,131,98
-710.097351,2207.850098,671.600586,156,133,100
-698.895142,2207.758545,671.301575,155,129,99
-687.692261,2207.664551,671.001953,152,127,97
-676.489929,2207.572754,670.702881,149,125,97
-665.287048,2207.479004,670.403320,151,127,100
-654.084412,2207.385986,670.103882,149,124,99
-642.881958,2207.293457,669.804565,147,124,99
-631.679626,2207.201416,669.505554,148,126,98
-620.488159,2207.148438,669.218140,146,123,96
-609.284851,2207.053711,668.918274,146,121,96
-598.081665,2206.959473,668.618469,146,121,96
-587.400269,2208.828369,668.912415,146,121,96
