-208.052475,2878.675049,-1388.143799,207,174,146
-192.305801,2880.422852,-1389.140381,204,172,144
-176.463547,2880.863525,-1389.508301,210,177,150
-160.932709,2886.909912,-1392.573730,214,180,151
-145.887634,2903.867432,-1400.891235,213,178,149
-130.384613,2914.676514,-1406.251099,213,181,150
-114.326874,2914.293945,-1406.224243,211,179,149
-98.328117,2915.422607,-1406.924927,212,179,151
-82.114082,2909.253174,-1404.111694,208,176,148
-66.268082,2916.080322,-1407.556396,155,125,96
-48.956406,2842.473145,-1372.263672,134,110,90
-29.721529,2538.147705,-1225.833252,10,8,2
-15.547036,2503.789307,-1209.419189,11,6,0
-1.753258,2470.295410,-1193.417603,10,6,1
11.875189,2481.414551,-1198.908325,10,7,2
25.654488,2495.721924,-1205.936646,7,6,2
39.484222,2503.394775,-1209.769165,10,8,5
53.880196,2534.145508,-1224.725586,13,8,10
68.916206,2576.455322,-1245.257324,27,10,0
87.184013,2705.429688,-1307.574463,182,156,135
104.947212,2783.324219,-1345.277222,181,154,130
120.623360,2792.822266,-1350.006958,175,148,124
136.420670,2802.744873,-1354.942505,156,129,107
152.584610,2817.527832,-1362.223511,159,133,109
166.286240,2788.148926,-1348.203613,81,55,38
157.289673,2413.528564,-1167.629272,25,12,9
165.800064,2346.372803,-1135.358154,11,9,3
174.550323,2292.115479,-1109.303589,8,7,1
187.710419,2299.505127,-1112.993042,8,6,0
199.419067,2289.248047,-1108.166260,8,6,0
211.665970,2286.081543,-1106.760986,7,5,1
223.848251,2282.636475,-1105.220703,4,2,-4
238.834244,2306.794678,-1117.006714,8,9,3
258.848389,2374.892334,-1150.011597,77,65,43
273.531616,2389.712891,-1157.296021,82,68,45
286.493530,2388.789551,-1156.978516,86,70,50
299.285828,2386.612549,-1156.055054,76,58,42
312.141663,2385.128174,-1155.466064,76,57,45
324.475006,2379.937012,-1153.086182,79,61,50
336.428864,2372.479980,-1149.610596,67,48,38
347.701721,2360.954346,-1144.168457,79,59,47
356.768524,2335.770508,-1132.124268,65,45,31
367.122223,2320.514648,-1124.875977,61,43,26
377.859375,2308.648926,-1119.264526,55,40,16
388.438751,2296.630127,-1113.578003,60,48,21
398.840576,2284.358887,-1107.768066,48,34,11
408.823730,2270.514160,-1101.195801,54,38,18
419.596466,2261.773682,-1097.090454,53,36,13
427.934174,2240.745850,-1087.041504,38,20,2
435.320923,2216.040283,-1075.211182,55,38,21
431.437164,2136.634033,-1036.916382,74,58,41
433.648132,2090.933350,-1014.920227,45,33,16
438.865479,2061.772949,-1000.922424,34,26,17
444.332489,2035.230591,-988.188416,30,22,21
450.802490,2014.495361,-978.261902,42,34,38
458.468109,1999.996216,-971.351746,38,26,17
466.568909,1988.044189,-965.672852,72,57,46
475.407837,1979.732422,-961.755127,65,54,43
484.315155,1972.078857,-958.155151,65,54,43
490.658081,1954.508057,-949.752136,67,57,44
499.144867,1946.088135,-945.778931,65,55,40
507.472168,1937.416260,-941.682617,65,56,34
516.470276,1931.626587,-938.981506,61,52,36
524.651245,1923.068604,-934.938721,62,54,38
532.260193,1912.789307,-930.061035,58,46,28
542.513794,1912.275635,-929.914307,66,55,38
550.834656,1905.076050,-926.527222,63,51,34
556.573364,1889.346191,-919.005127,69,56,36
555.463257,1851.266602,-900.648071,63,47,22
469.687683,1536.156738,-747.991394,80,63,35
476.316071,1530.598755,-745.378662,51,32,-3
485.405792,1533.052734,-746.650085,57,39,9
493.797485,1533.250732,-746.827881,41,23,-5
503.022858,1536.007324,-748.246521,39,25,-3
512.469299,1539.347290,-749.948364,40,28,1
521.886475,1542.498413,-751.558960,44,31,3
531.706055,1546.732788,-753.695374,44,29,1
541.645020,1551.184204,-755.937439,51,32,2
554.818481,1564.673828,-762.565918,60,39,8
566.751526,1574.298706,-767.320129,53,34,7
582.890503,1595.211426,-777.553894,57,41,26
602.857422,1625.892334,-792.531494,71,59,54
613.218384,1630.034790,-794.628906,61,51,41
624.203430,1635.708374,-797.470154,56,46,36
633.885559,1637.845459,-798.594849,53,46,35
642.895996,1638.208740,-798.858276,54,47,38
652.503540,1640.075562,-799.851929,50,43,31
661.315918,1639.915771,-799.861572,51,44,27
670.311890,1640.216675,-800.094727,50,42,25
678.623596,1638.854126,-799.519958,51,41,23
686.861023,1637.353882,-798.877930,52,42,25
694.114441,1633.569458,-797.125916,52,40,25
701.157898,1629.394775,-795.183716,35,28,10
708.589478,1626.223755,-793.728882,6,8,2
716.236694,1623.625732,-792.552246,5,7,5
724.521301,1622.529541,-792.105347,1,2,-1
732.803711,1621.459229,-791.671021,4,3,0
741.742188,1621.859863,-791.951843,1,0,-3
751.046692,1623.050659,-792.616760,2,0,-2
760.242981,1623.985718,-793.157654,1,0,-1
769.443665,1624.913086,-793.694641,7,9,14
778.736084,1626.016113,-794.317322,-2,4,16
788.458313,1627.990479,-795.363892,-2,1,11
798.483337,1630.546631,-796.693787,-1,1,8
809.341858,1634.742676,-798.821960,-1,3,7
823.552673,1645.582031,-804.183716,4,10,6
837.907532,1656.480469,-809.575195,0,1,-5
857.369385,1677.188843,-819.743286,26,18,0
884.375610,1712.140259,-836.847351,42,32,7
898.369629,1721.331299,-841.412720,43,30,10
910.470276,1726.731812,-844.133362,49,38,26
921.311707,1729.652710,-845.647095,54,43,33
930.659790,1729.731445,-845.776733,43,33,22
941.291748,1732.185425,-847.063416,51,42,30
950.899536,1732.720825,-847.415649,48,38,27
963.113220,1737.972900,-850.065857,50,38,28
975.285767,1743.053833,-852.633301,49,40,28
985.833374,1745.152588,-853.747925,45,36,21
995.618286,1745.872559,-854.190796,49,35,27
1004.978271,1745.841553,-854.267700,52,40,29
1014.471191,1746.044312,-854.458557,58,48,31
1021.787048,1742.518311,-852.831604,57,51,33
1025.378662,1732.739380,-848.155579,50,47,24
1032.317993,1728.770386,-846.311462,62,57,35
1043.038452,1731.178467,-847.576721,68,61,42
-887.407227,1326.981689,-641.687378,72,54,49
-1021.273621,1541.198975,-744.830627,91,69,85
-1035.119141,1575.694580,-761.514465,63,47,51
-1007.377258,1546.681885,-747.638611,52,43,26
-1006.220825,1558.496460,-753.409851,51,41,17
-1015.497070,1586.882446,-767.159424,50,45,8
-1013.171326,1597.409180,-772.314209,53,41,26
-1006.980896,1601.950195,-774.588135,56,44,36
-995.310974,1597.740723,-772.648926,65,55,45
-985.289978,1596.132080,-771.961731,35,29,24
-973.335022,1591.316162,-769.729675,60,51,48
-961.873840,1587.225098,-767.846191,47,40,30
-951.441711,1584.774048,-766.752258,56,48,34
-941.648376,1583.351074,-766.153503,56,49,31
-929.151733,1577.290649,-763.319824,56,46,33
-918.157288,1573.694214,-761.673035,58,45,36
-906.027710,1568.051636,-759.039551,55,45,35
-893.522827,1561.635742,-756.032715,58,53,43
-881.207886,1555.425049,-753.124146,48,41,25
-873.730652,1557.744385,-754.327332,50,44,26
-865.800049,1559.286987,-755.156311,53,45,25
-861.651611,1567.765625,-759.330200,57,50,26
-855.016235,1571.826660,-761.374512,47,39,17
-865.461182,1607.818115,-778.820740,34,23,23
-865.043274,1624.096680,-786.761353,40,31,32
-860.148254,1632.192261,-790.755676,37,35,28
-862.236572,1653.901855,-801.319885,22,21,10
-857.449463,1662.700928,-805.656311,31,27,9
-854.374146,1675.057617,-811.710571,35,30,3
-845.711853,1676.570557,-812.532043,35,31,11
-845.116150,1694.342163,-821.202393,29,22,8
-841.846375,1707.072876,-827.440918,32,25,5
-848.583313,1740.688843,-843.764893,29,21,11
-845.954773,1755.582153,-851.051575,34,26,16
-839.967468,1763.746216,-855.089966,36,28,19
-837.720581,1780.073975,-863.072327,35,29,25
-830.549866,1786.167114,-866.112488,37,29,26
-828.839539,1804.329834,-874.984192,28,19,11
-823.697021,1815.347656,-880.405762,23,17,7
-816.939087,1823.019531,-884.211609,37,32,20
-809.973022,1830.408325,-887.881592,19,13,-2
-813.055115,1861.052856,-902.792297,23,21,3
-810.028015,1878.278442,-911.219910,25,22,5
-805.248474,1891.822388,-917.869507,22,23,10
-802.740356,1911.145020,-927.314392,18,18,1
-797.326965,1923.953125,-933.611511,14,14,-1
-796.082458,1947.332886,-945.022217,13,9,-3
-792.231750,1964.872803,-953.611084,21,16,3
-791.867493,1991.694336,-966.691345,19,13,3
-788.050842,2010.441772,-975.868652,15,9,1
-787.354614,2037.823975,-989.225342,18,11,1
-791.145264,2077.818848,-1008.687988,10,6,-2
-785.927551,2094.921631,-1017.076965,11,6,0
-783.313904,2119.599121,-1029.133667,14,8,-1
-778.154602,2138.013672,-1038.161743,19,15,6
-776.407349,2166.540039,-1052.086426,37,34,21
-772.112610,2188.721680,-1062.942627,30,25,18
-770.078552,2218.135986,-1077.303345,33,25,11
-765.636719,2241.436523,-1088.706299,37,27,11
-760.096069,2262.223877,-1098.894775,34,24,9
-753.775818,2281.338379,-1108.275391,61,50,41
-749.322327,2306.860352,-1120.761597,66,58,46
-753.130066,2359.202637,-1146.243896,7,5,1
-753.811584,2403.404541,-1167.787842,2,0,-2
-752.983459,2444.283691,-1187.726318,10,7,1
-744.094727,2459.950928,-1195.450928,8,4,2
-730.715515,2461.038574,-1196.110962,46,31,33
-715.620239,2456.254150,-1193.924683,77,61,47
-711.396179,2489.394287,-1210.122803,72,57,42
-711.392090,2538.930908,-1234.274414,85,70,55
-701.791138,2555.445312,-1242.418945,81,68,55
-697.028625,2590.649170,-1259.628540,81,70,58
-687.341064,2608.596680,-1268.472778,81,68,55
-679.927124,2636.136719,-1281.971558,98,77,55
-679.687988,2693.360352,-1309.872925,207,175,140
-691.484985,2802.004883,-1362.727783,209,175,144
-685.876099,2843.351318,-1382.940552,208,174,143
-672.064026,2851.761963,-1387.174927,208,176,146
-661.246155,2873.595947,-1397.924927,205,172,142
-645.838928,2876.020508,-1399.256226,204,172,140
-628.696594,2870.615723,-1396.787354,210,178,148
-614.314636,2877.864502,-1400.460938,208,177,144
-596.525024,2869.066895,-1396.344238,210,178,146
-579.903137,2865.547852,-1394.789551,207,175,143
-564.194885,2866.461182,-1395.387085,208,176,144
-547.428589,2861.868896,-1393.310791,210,178,147
-529.591797,2851.210449,-1388.286865,207,175,145
-513.365417,2848.826416,-1387.281982,206,174,144
-499.953644,2862.409424,-1394.034302,203,170,140
-485.421448,2870.224365,-1397.985474,208,174,143
-471.465759,2882.075195,-1403.898438,210,177,143
-455.419373,2881.485107,-1403.766357,212,179,146
-437.893799,2871.116455,-1398.880981,213,180,148
-421.586456,2868.241699,-1397.637573,212,180,151
-406.044556,2870.534912,-1398.906128,212,179,153
-389.300781,2864.134033,-1395.947754,211,179,151
-373.944702,2867.818115,-1397.892700,213,180,151
-359.262085,2877.197754,-1402.608032,210,177,149
-343.810455,2880.963135,-1404.593628,212,178,151
-328.416443,2885.568115,-1406.987915,213,179,151
-312.096100,2882.045654,-1405.428833,214,179,152
-295.714935,2877.517578,-1403.379883,212,178,148
-278.874084,2867.706787,-1398.760010,211,176,147
-261.937744,2855.635254,-1393.038696,208,176,148
-244.504379,2836.209229,-1383.736694,203,171,143
-228.649612,2833.659668,-1382.647217,207,175,147
-213.539429,2840.596436,-1386.175903,205,173,146
-195.762955,2810.294922,-1371.574707,201,169,143
-176.297256,2748.405762,-1341.589478,208,176,150
-161.670166,2757.352051,-1346.093140,212,179,153
-147.686890,2780.197266,-1357.366699,212,180,152
-134.490265,2824.746826,-1379.214478,212,180,150
-120.460854,2861.072754,-1397.061279,212,180,150
-105.610313,2885.791260,-1409.256470,212,180,150
-89.862206,2890.309082,-1411.611816,212,180,152
-73.460907,2871.178467,-1402.443481,211,180,152
-56.185970,2798.184082,-1367.022949,211,182,154
-38.529461,2644.460693,-1292.246948,155,135,121
-23.008923,2539.071533,-1241.015381,10,4,1
-8.784328,2470.233643,-1207.591797,7,4,-3
4.790958,2463.344238,-1204.364258,8,6,0
18.407585,2473.023682,-1209.215454,7,6,0
32.378895,2502.476318,-1223.710449,5,4,1
46.678307,2532.393066,-1238.434814,9,6,5
62.532784,2614.240234,-1278.492676,18,11,10
79.253281,2695.138916,-1318.096680,188,166,147
96.156281,2755.821777,-1347.846069,191,164,140
112.481644,2785.626953,-1362.535645,187,160,135
128.538300,2802.452881,-1370.894775,188,161,137
144.504944,2813.983643,-1376.671265,179,151,131
161.667343,2844.491943,-1391.711792,132,106,88
171.065826,2744.483398,-1343.044312,79,58,26
177.208511,2612.497559,-1278.754639,11,8,1
181.146927,2470.133057,-1209.383667,5,5,-2
181.999985,2308.320312,-1130.500732,9,7,1
192.050720,2277.272461,-1115.460815,9,7,2
204.398834,2275.765869,-1114.846069,10,8,1
217.483627,2282.232422,-1118.125854,11,9,3
231.263443,2294.953857,-1124.461426,6,4,-2
245.815918,2313.695557,-1133.740112,14,10,-6
263.400543,2357.890137,-1155.457275,81,68,47
280.640686,2395.020508,-1173.727173,84,69,49
295.752869,2411.431152,-1181.874512,81,66,44
308.377197,2406.961182,-1179.817627,77,60,42
321.476807,2406.452881,-1179.696899,83,67,53
332.260132,2389.281006,-1171.429321,83,65,53
344.279816,2382.020264,-1168.005859,78,60,50
355.443237,2369.577881,-1162.047852,77,59,45
367.280945,2362.386230,-1158.656250,71,53,39
375.818329,2335.111572,-1145.441406,67,51,36
384.734161,2311.931152,-1134.226318,59,45,26
390.698517,2273.001465,-1115.304077,50,35,14
396.243164,2234.111572,-1096.397339,49,33,10
406.937744,2225.848633,-1092.472412,59,45,21
413.409576,2195.561035,-1077.768433,61,49,27
420.134338,2168.306885,-1064.545898,54,41,22
424.198212,2129.148438,-1045.494019,42,28,5
428.469360,2093.110352,-1027.965088,47,33,15
430.586334,2048.664062,-1006.315918,36,29,17
435.114105,2017.708740,-991.267822,37,31,27
439.920105,1989.557617,-977.589355,35,29,36
443.094727,1955.542114,-961.036011,27,20,13
451.147980,1944.256226,-955.611572,61,48,36
458.356445,1929.926147,-948.695007,62,50,41
465.081390,1914.250366,-941.117493,58,47,38
472.652954,1902.696167,-935.557739,67,56,46
480.541077,1892.900269,-930.858276,61,49,31
488.269379,1882.906006,-926.060425,55,46,21
496.714020,1876.050293,-922.799866,63,55,31
505.076050,1869.172729,-919.527832,60,52,35
512.281006,1858.359009,-914.325439,56,45,30
519.646423,1848.546021,-909.612610,58,48,33
526.920288,1838.793335,-904.928101,62,50,34
533.675720,1827.628418,-899.550232,66,52,36
525.079163,1765.032471,-868.948547,63,49,29
508.982666,1679.818726,-827.246887,72,58,38
487.389404,1579.710327,-778.230225,60,41,15
484.133850,1541.788574,-759.710022,46,26,-2
489.670654,1532.835205,-755.398560,58,39,9
496.490326,1528.157227,-753.183899,51,35,3
503.913055,1525.474609,-751.947876,43,29,0
513.635559,1529.770264,-754.136536,36,21,-3
524.862915,1538.368408,-758.437378,39,22,-3
535.298157,1544.405396,-761.481689,42,24,-1
545.704834,1550.179932,-764.397949,50,34,-2
557.200439,1558.846191,-768.734619,52,35,1
568.252319,1566.029663,-772.344055,73,62,45
580.486450,1576.233154,-777.437256,56,44,30
592.919739,1586.681274,-782.651733,70,59,47
604.244629,1593.896606,-786.279297,52,44,29
614.179138,1597.279785,-788.025085,51,44,30
623.522217,1599.049805,-788.978577,55,48,32
633.485229,1602.352295,-790.685242,39,34,14
642.739380,1603.792725,-791.477234,46,41,26
651.744141,1604.582642,-791.949646,48,41,27
660.066895,1603.691406,-791.595886,44,37,22
667.929810,1601.719971,-790.710938,48,41,23
676.007263,1600.314575,-790.103882,48,41,26
682.319092,1594.801880,-787.477417,45,39,20
690.466797,1593.689941,-787.014221,16,14,0
698.831848,1593.107788,-786.811584,-1,1,2
707.583496,1593.419312,-787.048279,7,6,5
716.278198,1593.600220,-787.220825,15,12,5
724.599670,1592.956787,-786.987793,11,8,1
733.324341,1593.213135,-787.197205,15,12,2
742.476624,1594.390259,-787.859924,11,10,1
751.723938,1595.747559,-788.611206,17,16,12
761.164062,1597.484619,-789.549561,3,7,14
770.093384,1598.121582,-789.946777,2,9,19
778.792297,1598.273804,-790.105286,8,16,33
787.005310,1597.435303,-789.776123,7,11,25
795.937195,1598.069336,-790.171814,2,9,8
805.903320,1600.757935,-791.579224,17,15,2
818.505188,1608.598145,-795.523804,29,23,2
834.727905,1623.352539,-802.874512,35,28,9
856.206970,1647.968628,-815.084229,45,37,26
869.089966,1655.631958,-818.945312,48,41,34
881.372375,1662.005493,-822.171753,45,36,30
890.361511,1662.078491,-822.294556,45,37,29
899.368286,1662.186890,-822.434570,50,41,34
908.106567,1661.803101,-822.332214,48,38,30
916.776489,1661.306274,-822.174011,47,37,28
925.297791,1660.554810,-821.890198,45,39,29
936.256592,1664.173462,-823.760681,45,37,34
945.693542,1665.035767,-824.272583,50,41,36
954.612488,1664.977539,-824.330627,52,40,35
962.839050,1663.722412,-823.798462,50,35,24
970.405579,1661.358765,-822.719421,44,32,16
975.887817,1655.489868,-819.911194,53,45,27
982.043701,1650.867920,-817.717468,49,43,13
995.047302,1657.792847,-821.219727,57,48,17
-282.429352,419.608856,-207.660034,179,156,131
-272.130402,407.608612,-201.838715,182,159,135
-265.278503,400.686035,-198.489273,177,154,128
-261.388672,398.223907,-197.311905,178,155,128
-260.672974,400.670929,-198.525909,176,156,128
-259.288574,402.107697,-199.247940,178,156,128
-257.982849,403.694366,-200.043152,182,161,132
-256.182983,404.516785,-200.466110,181,158,129
-255.325439,406.877441,-201.638855,175,155,122
-250.777252,403.256409,-199.896088,179,161,125
-248.328247,403.025574,-199.805664,172,155,120
-245.443771,402.065399,-199.359589,172,156,121
-243.693329,402.989685,-199.832306,170,155,121
-241.814926,403.713867,-200.207535,171,154,121
-239.736038,404.108063,-200.421921,173,155,125
-237.521194,404.274139,-200.525009,174,156,132
-235.393219,404.594025,-200.703186,171,153,127
-233.270065,404.927826,-200.888168,171,153,125
-231.481827,405.863251,-201.366745,174,156,127
-229.118286,405.782654,-201.349625,172,154,129
-227.005020,406.153748,-201.552917,168,150,127
-224.057358,405.000946,-201.012451,175,155,132
-222.505112,406.409485,-201.722137,172,150,128
-219.619934,405.350159,-201.227173,167,144,122
-217.302643,405.342194,-201.245438,170,146,127
-214.897476,405.164948,-201.181015,169,147,125
-213.371506,406.682983,-201.944489,167,147,124
-211.361588,407.287140,-202.261765,173,155,133
-210.778412,410.723938,-203.962753,159,140,119
-213.463776,420.770111,-208.893005,163,142,122
-215.913361,430.566162,-213.702103,159,140,121
-219.316727,442.535797,-219.574280,156,139,118
-219.842606,448.829803,-222.674225,137,120,102
-224.509735,463.936218,-230.081741,136,125,106
-230.759354,482.750366,-239.303223,147,135,114
-248.541489,526.726990,-260.827332,142,128,106
-319.331635,686.736328,-339.084747,122,108,79
-367.293427,800.555725,-394.774475,126,110,77
-457.255371,1010.561340,-497.512299,139,121,91
-548.081909,1227.797485,-603.808777,98,80,51
-576.315918,1307.891113,-643.049866,105,85,66
-592.198914,1361.531006,-669.359253,118,99,85
-626.961914,1460.731079,-717.963318,98,82,58
-659.245544,1556.677612,-764.986206,94,74,45
-684.000244,1637.111206,-804.428345,91,69,42
-703.133972,1706.042725,-838.250183,94,71,47
-729.452698,1794.601440,-881.685547,99,76,50
-741.826172,1850.730957,-909.256592,86,69,51
-750.676819,1899.503662,-933.232239,97,77,59
-764.428223,1962.287720,-964.072815,81,59,38
-769.479431,2004.170898,-984.686157,71,45,16
-775.641174,2050.228271,-1007.348083,86,66,43
-771.580383,2070.159424,-1017.219177,55,35,20
-773.110840,2105.961182,-1034.866089,60,45,29
-768.522400,2125.891113,-1044.741699,54,41,11
-775.352661,2178.605957,-1070.681274,59,44,19
-776.582825,2216.966553,-1089.593384,65,48,37
-771.940552,2239.482910,-1100.745605,77,56,53
-773.140259,2280.001953,-1120.722656,70,57,54
-756.949158,2269.597900,-1115.745239,79,67,61
-752.677246,2295.264648,-1128.447754,39,25,23
-738.483398,2290.957031,-1126.458496,39,27,26
-742.376953,2343.722656,-1152.451416,40,26,16
-738.952209,2374.797119,-1167.813721,32,20,7
-744.452942,2436.268555,-1198.085815,24,13,5
-733.588562,2445.342285,-1202.666016,23,12,4
-713.761780,2424.241455,-1192.446411,78,64,48
-708.849121,2454.060303,-1207.203491,82,67,48
-700.936584,2474.427490,-1217.326782,110,92,74
-695.079956,2503.019043,-1231.487427,75,59,45
-687.189758,2525.279053,-1242.544189,81,67,56
-684.842102,2569.291016,-1264.278320,77,64,52
-669.944580,2566.983887,-1263.282837,80,64,55
-642.968933,2517.183350,-1238.973633,205,178,149
-689.601807,2760.330078,-1358.475220,208,176,144
-672.144165,2751.670410,-1354.370361,203,172,141
-663.871277,2781.138672,-1368.986572,198,167,137
-654.903320,2809.008057,-1382.820923,199,169,139
-639.288086,2808.964111,-1382.948486,201,171,142
-626.514221,2821.720459,-1389.363770,202,172,143
-608.444946,2810.611328,-1384.056396,205,174,144
-592.476562,2808.876953,-1383.353760,209,178,149
-577.432373,2811.538818,-1384.810913,206,176,145
-560.868530,2806.713135,-1382.588867,207,176,145
-543.430847,2797.088379,-1378.007568,208,177,147
-524.430237,2778.584961,-1369.061523,198,167,137
-503.728912,2749.644775,-1354.983032,201,171,142
-488.974762,2752.407471,-1356.487305,201,170,141
-478.755310,2781.716797,-1371.043823,209,177,147
-466.180817,2798.792725,-1379.587891,207,175,144
-451.816223,2805.886963,-1383.224976,207,176,145
-435.910675,2803.538330,-1382.218750,205,175,144
-412.597992,2751.526611,-1356.783691,203,173,144
-399.095337,2763.528076,-1362.833374,205,175,146
-387.725739,2791.838623,-1376.908325,210,180,152
-373.908508,2804.090820,-1383.084595,210,179,152
-357.128143,2794.163818,-1378.348145,206,174,147
-341.001617,2788.662598,-1375.788696,208,177,150
-327.438416,2804.590088,-1383.775757,209,176,149
-314.537567,2828.026611,-1395.460815,212,179,151
-298.816711,2827.171875,-1395.189697,212,179,151
-281.103638,2806.281006,-1385.053467,205,173,145
-264.306641,2792.603516,-1378.466919,209,177,150
-247.058121,2772.123535,-1368.529053,204,173,146
-232.228088,2777.845947,-1371.493530,204,173,147
-217.759628,2788.963135,-1377.116577,206,175,149
-204.601166,2819.778320,-1392.443848,207,176,151
-186.851181,2787.106201,-1376.496460,204,174,150
-163.709000,2660.899658,-1314.458252,203,175,152
-144.977386,2588.560059,-1278.951416,202,174,151
-130.134491,2577.362793,-1273.569702,190,163,142
-116.718834,2595.052490,-1282.424683,166,138,116
-103.313744,2617.847656,-1293.798096,148,119,98
-89.461555,2634.771729,-1302.279663,133,103,80
-74.953362,2635.110596,-1302.585693,141,111,81
-60.708282,2646.883789,-1308.529907,129,101,72
-45.627350,2618.207520,-1294.527832,148,121,97
-30.712191,2576.876221,-1274.281128,71,51,58
-16.384771,2555.421143,-1263.834229,16,8,3
-2.289578,2527.831787,-1250.358765,11,7,0
11.671279,2539.179443,-1256.090576,8,6,-1
25.910101,2566.352783,-1269.631958,8,7,1
40.281910,2583.001221,-1277.982178,6,6,3
55.216675,2618.031494,-1295.406250,11,7,2
69.129295,2599.819824,-1286.555298,32,11,2
84.831184,2644.191650,-1308.594971,194,168,146
102.741081,2734.790283,-1353.460083,196,166,141
121.971291,2833.119629,-1402.151245,191,163,140
138.908829,2861.704102,-1416.414673,189,160,139
153.600525,2842.749023,-1407.204468,172,142,123
158.072006,2654.793701,-1314.526123,137,108,92
165.909195,2550.722412,-1263.261230,40,29,16
171.333984,2428.554199,-1203.045776,5,7,0
181.857254,2391.504639,-1184.869263,6,8,2
189.923004,2329.193604,-1154.207642,7,4,-2
200.712570,2306.248779,-1142.991821,11,7,0
212.705841,2299.137695,-1139.598633,13,10,3
226.744797,2313.831055,-1146.981445,4,4,0
241.399185,2332.969482,-1156.562866,8,9,1
256.543762,2354.725830,-1167.440674,68,54,34
271.431366,2372.165771,-1176.186523,94,73,58
285.831146,2383.948242,-1182.136841,86,65,53
300.076721,2393.488770,-1186.979736,85,65,52
311.893921,2383.614502,-1182.221680,82,62,46
324.328278,2379.103516,-1180.115356,80,60,46
334.753052,2360.730469,-1171.151245,91,73,56
346.012085,2349.433594,-1165.686279,84,67,51
354.108765,2318.176758,-1150.344238,82,63,49
362.723663,2292.391113,-1137.706299,81,66,48
373.468811,2281.415771,-1132.394775,83,69,51
381.887360,2257.357422,-1120.607056,72,57,42
392.678711,2248.465820,-1116.324097,72,57,37
401.255859,2227.786133,-1106.204468,60,44,23
410.157898,2210.098389,-1097.564087,55,41,22
416.593536,2180.474854,-1083.011963,52,41,21
423.882935,2156.875732,-1071.439941,47,37,18
419.760376,2077.833984,-1032.407959,50,37,14
425.710114,2051.723389,-1019.584290,53,44,27
433.806519,2037.089844,-1012.442810,42,36,19
442.402374,2025.496948,-1006.806030,39,34,16
447.852661,2000.369507,-994.462585,30,24,12
451.469757,1968.421753,-978.736816,37,26,3
454.760925,1936.576172,-963.058472,63,51,45
462.354095,1924.171265,-957.011719,61,50,41
476.162598,1937.732422,-963.833679,62,53,42
480.955780,1914.665039,-952.500122,54,45,26
487.370239,1898.932251,-944.800232,51,45,17
494.389496,1886.181396,-938.577271,54,48,17
500.778809,1871.594116,-931.442261,55,47,23
509.117767,1864.771362,-928.156372,57,48,27
515.301270,1850.448608,-921.149963,59,50,36
521.771423,1837.698486,-914.922058,58,48,32
525.181885,1814.814209,-903.665527,61,50,33
530.765747,1800.188965,-896.504089,60,46,28
522.133484,1738.541260,-866.009766,61,50,30
492.086334,1608.728271,-801.683533,62,44,15
484.748169,1556.778931,-775.985840,64,45,18
485.150970,1531.183838,-763.363281,61,41,21
491.810181,1525.975830,-760.857910,50,32,5
500.109070,1525.976318,-760.937500,42,28,-2
509.588531,1529.544800,-762.788696,38,26,1
519.216614,1533.445557,-764.805115,51,38,7
530.265076,1541.379395,-768.824829,44,32,2
540.225037,1545.940552,-771.170227,39,25,-4
552.933960,1558.153687,-777.316772,52,38,5
562.938171,1562.458252,-779.536011,59,41,14
573.778198,1568.937256,-782.835999,55,43,20
584.201477,1574.103394,-785.484192,50,39,14
593.778748,1576.867798,-786.939636,55,46,19
603.054199,1578.764282,-787.964050,54,46,21
612.295776,1580.525024,-788.921082,55,49,27
621.261292,1581.536133,-789.505676,55,51,33
630.582703,1583.422363,-790.525391,47,43,25
640.292664,1586.230591,-792.003601,50,43,28
649.460205,1587.636475,-792.784912,55,50,29
658.345459,1588.325806,-793.210022,52,45,27
666.256775,1586.671387,-792.469543,47,44,23
674.299133,1585.373291,-791.906189,41,37,18
682.726501,1585.010620,-791.807983,36,33,15
691.043762,1584.407959,-791.590210,34,32,15
699.398438,1583.909790,-791.424438,23,19,22
707.586548,1583.053101,-791.080200,32,33,31
716.139465,1583.032104,-791.151672,26,24,13
725.194336,1584.117676,-791.773865,43,42,35
734.411865,1585.534912,-792.561340,38,41,27
743.177795,1585.955322,-792.852539,23,23,2
752.344849,1587.220703,-793.564575,28,22,0
761.536438,1588.512939,-794.289978,30,27,11
769.087708,1586.380859,-793.310547,25,23,20
777.460266,1585.983032,-793.194397,23,19,28
784.436279,1582.766235,-791.674377,37,29,38
792.141479,1581.085449,-790.918884,40,33,30
803.014282,1585.729858,-793.314087,26,23,15
819.464478,1601.230469,-801.118225,34,29,19
839.600891,1623.572876,-812.332825,41,33,26
851.413513,1629.452881,-815.346558,41,34,31
862.447754,1633.735229,-817.564758,46,38,33
871.952515,1635.053345,-818.306030,55,46,43
881.250977,1635.963989,-818.844238,44,38,32
890.058289,1635.953369,-818.923279,51,45,34
898.662048,1635.574707,-818.818726,48,39,25
905.357178,1631.750854,-816.996460,47,43,25
915.326294,1633.875488,-818.140015,48,41,29
924.887207,1635.237915,-818.903625,47,36,30
933.726807,1635.309326,-819.023499,49,39,31
942.005676,1634.405518,-818.656860,49,37,33
949.415649,1632.021240,-817.551575,48,36,18
957.371094,1630.617554,-816.935364,47,36,12
963.298828,1625.804443,-814.617615,46,37,9
971.213745,1624.420654,-814.010803,48,40,9
979.602539,1623.853638,-813.811340,45,36,15
-263.277191,388.736328,-194.930374,184,161,136
-260.365662,387.710846,-194.446075,187,163,138
-264.085632,396.784515,-198.939514,187,165,137
-260.798523,395.231476,-198.195465,186,163,136
-257.278259,393.288422,-197.258987,186,164,134
-255.731934,394.401764,-197.829254,184,160,131
-253.698502,394.764435,-198.029480,186,162,133
-251.647919,395.105347,-198.219009,187,163,134
-249.472015,395.250061,-198.311783,185,163,131
-247.031219,394.966461,-198.193314,183,162,130
-244.202164,394.040588,-197.757950,184,162,130
-241.710129,393.653931,-197.588516,185,163,134
-239.392883,393.550903,-197.558990,184,162,132
-237.186356,393.631622,-197.620117,185,163,131
-234.912949,393.599182,-197.625427,183,161,131
-232.788147,393.820465,-197.755936,183,161,132
-230.649338,394.020844,-197.876190,182,160,133
-228.630112,394.433777,-198.101334,179,157,128
-226.500351,394.658417,-198.233582,181,159,130
-224.453262,395.034363,-198.440552,183,161,130
-222.486694,395.562317,-198.722626,183,159,129
-220.080963,395.299316,-198.614105,182,159,130
-217.712341,395.098297,-198.536179,183,160,133
-215.120056,394.475739,-198.249939,184,161,136
-212.338211,393.482361,-197.780441,181,160,135
-209.988617,393.288666,-197.705978,181,160,134
-207.598572,393.011993,-197.590469,181,158,132
-205.679672,393.643646,-197.923874,182,159,131
-203.383453,393.547028,-197.897354,180,158,131
-201.114243,393.500854,-197.895752,179,158,132
-198.355621,392.469696,-197.407166,178,155,130
-195.971573,392.174774,-197.282501,182,159,132
-193.362442,391.409576,-196.925262,181,158,131
-190.493988,390.086334,-196.291931,177,156,126
-188.181610,389.900391,-196.220978,181,160,130
-185.722717,389.397034,-195.992996,180,158,129
-182.997208,388.306183,-195.474304,177,155,128
-179.684875,385.908142,-194.308792,178,156,130
-176.387573,383.482910,-193.129547,175,152,127
-174.163498,383.394226,-193.106293,182,159,133
-173.238525,386.242126,-194.536392,180,158,133
-174.294067,393.701324,-198.249237,179,157,129
-172.979462,395.849945,-199.334015,180,159,131
-172.028015,398.908203,-200.869354,184,162,134
-170.250366,400.077209,-201.469604,181,159,131
-168.071899,400.308258,-201.605499,183,161,131
-166.524994,402.090973,-202.509857,179,157,125
-164.402130,402.491760,-202.729919,182,161,131
-162.269119,402.876892,-202.942307,180,157,128
-159.820694,402.466156,-202.760452,177,155,124
-157.460281,402.270294,-202.684998,175,153,122
-155.092453,402.047607,-202.596252,178,156,125
-152.495895,401.206726,-202.201111,179,159,126
-150.309708,401.450348,-202.343353,174,154,122
-147.733780,400.628326,-201.957443,177,157,126
-144.953156,399.207550,-201.274628,179,157,127
-143.022583,400.151764,-201.764114,177,154,127
-140.472015,399.337738,-201.381927,176,154,127
-137.981094,398.670319,-201.072372,176,153,127
-136.032425,399.593933,-201.551758,177,155,125
-132.919968,397.023102,-200.298080,179,158,126
-129.494522,393.398376,-198.521378,178,156,124
-128.346375,396.782104,-200.221024,177,156,121
-125.978111,396.392914,-200.049164,174,152,120
-124.816612,399.906219,-201.813599,176,154,124
-124.006874,404.710297,-204.218918,174,152,122
-122.729156,408.116089,-205.930817,173,150,123
-121.190262,410.753510,-207.261673,178,155,128
-119.440414,412.753357,-208.276291,176,153,126
-118.574066,417.984070,-210.895096,174,151,124
-117.282890,421.877411,-212.850418,171,148,121
-114.798256,421.493927,-212.682510,174,151,125
-113.680122,426.277954,-215.080734,175,152,127
-113.469963,434.785706,-219.328873,176,152,125
-110.578995,433.044342,-218.487091,177,152,123
-108.923744,436.228241,-220.091797,180,154,123
-101.647644,416.262756,-210.195953,180,154,125
-100.732048,422.334229,-213.234802,179,152,124
-97.426147,418.312714,-211.258957,179,152,124
-94.835350,417.273224,-210.764648,179,154,126
-92.152534,415.758636,-210.034073,179,154,127
-89.350967,413.606964,-208.986664,181,155,129
-86.815697,412.618011,-208.517044,181,156,130
-84.440857,412.364563,-208.413010,181,156,128
-81.952568,411.518127,-208.014069,181,156,129
-79.478149,410.692383,-207.625336,180,155,128
-77.471069,412.328644,-208.460907,184,157,130
-75.070557,411.880890,-208.260147,187,160,134
-72.170929,408.546661,-206.623444,189,161,133
-69.526642,406.499664,-205.626801,189,160,133
-67.115593,405.735413,-205.268158,190,162,134
-64.886383,406.063690,-205.453064,190,162,134
-62.518917,405.506775,-205.197495,192,166,135
-60.017529,403.994507,-204.466370,193,166,138
-57.249657,400.479187,-202.738052,193,167,137
-54.746296,398.617828,-201.832718,194,167,139
-52.345371,397.379517,-201.237396,192,165,137
-49.918610,395.821045,-200.482483,193,166,138
-47.435265,393.640961,-199.417923,195,167,141
-45.056213,392.159912,-198.701187,195,168,142
-42.575260,389.584503,-197.439285,190,163,137
-40.208279,387.834839,-196.588409,191,164,138
-37.946301,386.959015,-196.172668,190,162,137
-35.697220,386.112976,-195.771698,188,161,135
-33.204296,382.332825,-193.908600,190,162,137
-30.737894,378.359467,-191.948822,190,163,137
-28.620045,378.419373,-191.998734,189,162,136
-26.822676,383.064667,-194.334137,189,162,137
-24.582851,381.628418,-193.638504,190,163,139
-22.126266,376.235962,-190.970398,191,165,141
-20.212334,379.882904,-192.808609,189,164,139
-18.080412,379.807159,-192.790970,190,165,140
-16.026592,381.542114,-193.676315,191,166,142
-14.058119,386.093903,-195.966660,192,167,142
-12.145215,393.994171,-199.927673,198,173,148
-10.489345,415.152771,-210.503387,197,172,148
-8.851958,448.593781,-227.208984,202,179,156
-7.444836,522.102356,-263.909760,203,179,156
-7.259260,811.144104,-408.169708,180,161,139
-6.641663,1800.096802,-901.753174,182,164,140
2.989064,1613.429565,-808.680237,192,172,153
13.645819,1862.521606,-933.100647,182,159,140
25.014460,1950.628662,-977.181580,182,158,135
36.007599,1964.456543,-984.186768,198,180,155
51.204395,2150.584717,-1077.225342,185,166,142
46.408775,1577.417358,-791.117188,186,160,145
70.568459,2025.816406,-1015.137573,238,212,188
93.070015,2309.808594,-1157.088135,222,192,166
109.574471,2393.468750,-1198.998291,203,172,145
122.186974,2382.799561,-1193.792603,174,145,123
129.497833,2280.303711,-1142.706787,208,178,163
126.162918,2024.033081,-1014.772766,163,136,119
90.669586,1332.227539,-669.163269,104,79,65
150.000305,2045.897705,-1025.910522,73,51,39
178.401291,2264.995117,-1135.528564,115,91,83
192.123383,2280.356934,-1143.325195,111,87,76
204.599625,2279.913574,-1143.221802,88,65,57
216.134567,2269.617432,-1138.191895,68,49,33
230.500412,2288.720459,-1147.861938,84,66,50
240.737656,2266.810547,-1137.023682,62,41,20
161.528656,1442.397705,-724.817932,174,153,128
159.852875,1360.107178,-683.731567,172,149,126
131.353546,1065.490356,-536.421570,173,150,127
109.099945,845.092529,-426.212646,172,150,124
108.457054,805.276550,-406.334808,174,151,126
104.538307,744.952087,-376.190277,175,152,127
110.947784,760.967712,-384.244141,180,157,132
126.947922,840.017578,-423.848450,181,158,133
143.302231,915.789246,-461.820007,180,157,132
163.010376,1007.331482,-507.694183,177,155,131
191.477417,1145.697144,-577.020264,172,150,123
251.879837,1461.781006,-735.345703,159,138,112
335.452026,1889.514526,-949.613647,159,137,112
359.386597,1964.182129,-987.105652,147,126,101
375.961090,1995.283936,-1002.784973,137,118,91
384.213379,1981.525146,-995.996033,105,83,60
389.823303,1955.220215,-982.920532,87,67,43
395.422485,1930.279541,-970.525696,87,71,49
403.729523,1919.582642,-965.265442,16,6,-1
416.544739,1930.427368,-970.799072,57,45,30
425.862274,1924.865845,-968.111389,45,32,3
431.105347,1901.528442,-956.513489,38,28,-3
439.354034,1892.305176,-951.988220,65,53,48
445.875092,1876.212769,-944.018188,61,47,41
453.468018,1865.282593,-938.634827,66,53,45
459.519989,1848.614258,-930.372864,56,45,30
466.588959,1836.693359,-924.490234,56,47,28
472.571411,1821.076782,-916.752563,60,51,30
479.579010,1809.999268,-911.290161,67,57,35
487.021729,1800.994263,-906.866150,63,54,39
492.882141,1786.590698,-899.732971,63,52,40
500.483154,1778.969849,-896.001099,56,46,33
504.752991,1759.976440,-886.562073,59,47,32
510.646393,1747.281372,-880.281738,66,50,32
507.167755,1703.427246,-858.361572,71,56,36
502.173889,1656.134521,-834.711060,77,57,28
489.716553,1586.218628,-799.698975,93,71,36
481.471863,1532.212524,-772.667053,60,36,16
480.464630,1502.814697,-757.985413,64,41,29
487.671265,1499.806519,-756.552063,58,37,15
499.624634,1511.338867,-762.420837,45,27,0
511.383606,1521.921509,-767.813538,41,25,0
519.513306,1521.486938,-767.673523,35,22,-4
530.670837,1529.846313,-771.951050,37,24,-2
543.633850,1543.104614,-778.690674,59,38,15
556.450928,1555.555054,-785.025696,47,28,-2
566.713135,1560.566406,-787.623779,66,52,32
577.424377,1566.659790,-790.766174,60,48,30
586.819397,1569.044067,-792.044983,50,39,13
591.434082,1558.702637,-786.927185,40,34,4
599.848450,1558.581055,-786.945984,39,37,6
607.412720,1556.278564,-785.868408,52,47,21
616.396545,1557.650146,-786.637695,50,43,18
626.189514,1561.016235,-788.410217,57,50,29
636.457825,1565.472778,-790.731506,57,51,34
646.106201,1568.303955,-792.235779,47,38,20
655.815002,1571.212036,-793.778931,45,35,17
664.497070,1571.609619,-794.059448,40,33,12
674.518494,1575.144653,-795.918335,41,34,14
684.129028,1577.643921,-797.256592,40,30,24
693.649719,1579.880493,-798.462830,25,14,16
703.092224,1581.890015,-799.554932,37,31,31
712.293579,1583.316528,-800.353882,43,38,33
721.185974,1584.031982,-800.794983,36,26,18
730.109253,1584.802124,-801.263733,41,38,31
739.089844,1585.682007,-801.787720,43,41,35
748.843262,1588.193115,-803.133118,32,25,13
753.737610,1580.413330,-799.296631,44,39,24
760.574402,1576.858887,-797.587219,32,26,9
768.089417,1574.784546,-796.622864,42,34,20
774.887573,1571.298706,-794.947388,43,36,26
781.113831,1566.739868,-792.731018,46,39,33
790.152588,1567.890869,-793.390808,37,32,32
806.579529,1583.597290,-801.384949,40,35,40
814.175049,1581.737427,-800.528503,55,50,51
831.072021,1597.889160,-808.749512,49,40,39
844.998718,1608.033569,-813.943970,53,43,43
854.852295,1610.266724,-815.151550,58,50,45
863.495422,1610.190796,-815.195374,41,33,21
872.671997,1611.109497,-815.740662,42,37,21
880.875000,1610.225708,-815.377075,44,38,18
888.683289,1608.644897,-814.661865,38,32,14
895.686035,1605.647339,-813.231995,43,38,16
905.397034,1607.541870,-814.269348,39,32,15
913.552063,1606.654663,-813.903564,47,42,29
921.862000,1606.058472,-813.684570,52,45,34
928.148010,1601.967285,-811.702209,48,38,20
936.224243,1601.030762,-811.311096,50,38,15
943.751709,1599.180298,-810.458557,45,35,7
951.458862,1597.669800,-809.777588,47,38,13
958.685486,1595.386353,-808.706177,50,41,24
-267.338562,396.211700,-200.986542,188,164,137
-260.524353,389.324677,-197.573013,187,163,136
-257.629395,388.318207,-197.091873,188,163,136
-255.051910,387.783752,-196.846085,187,163,134
-253.176575,388.332977,-197.140869,187,163,135
-250.271149,387.272003,-196.632309,187,162,134
-247.975204,387.157898,-196.596115,187,163,133
-245.383911,386.568146,-196.322540,188,164,133
-243.073380,386.420227,-196.269409,185,163,131
-240.235535,385.409424,-195.785538,184,162,130
-237.788467,385.021698,-195.612610,187,165,135
-235.335297,384.615723,-195.430542,185,163,132
-233.039795,384.465485,-195.376099,184,162,131
-230.879944,384.541016,-195.434372,183,160,131
-228.577347,384.373260,-195.371155,182,160,130
-226.426987,384.463867,-195.436951,183,161,131
-224.268707,384.541595,-195.496353,184,162,132
-222.230408,384.830994,-195.661469,185,163,133
-220.080246,384.926544,-195.729767,182,160,130
-218.156021,385.428528,-196.001160,182,160,129
-216.227859,385.932617,-196.273636,185,161,132
-214.024796,385.942749,-196.299316,184,160,131
-211.823181,385.954834,-196.325928,179,156,129
-209.649490,386.018372,-196.378311,181,158,131
-207.477066,386.084717,-196.432053,182,160,134
-205.164490,385.883789,-196.352203,184,162,136
-202.891037,385.753082,-196.307419,182,159,134
-201.473724,387.289459,-197.096298,182,160,133
-199.258820,387.284882,-197.114639,179,156,129
-196.602493,386.398346,-196.691849,181,158,132
-194.058136,385.716614,-196.371384,180,157,130
-192.070450,386.154572,-196.611038,180,157,130
-189.328964,385.045074,-196.076462,180,157,130
-187.031143,384.835266,-195.991959,176,156,127
-184.008301,383.086914,-195.137451,178,156,128
-181.236984,381.833618,-194.530548,180,157,130
-178.824966,381.326660,-194.297089,183,160,133
-176.066193,380.046204,-193.676376,180,157,131
-174.374924,381.101501,-194.224930,181,158,131
-172.881851,382.627502,-195.009308,179,157,129
-170.719803,382.669067,-195.050430,181,158,133
-168.537857,382.664551,-195.068527,183,160,133
-166.753967,383.588226,-195.551529,182,159,132
-165.248169,385.193146,-196.375854,184,161,133
-163.307434,385.796967,-196.698792,182,160,132
-161.434006,386.579651,-197.111450,182,159,130
-159.767151,387.891479,-197.789276,182,159,130
-157.001968,386.494995,-197.110031,180,158,130
-154.736160,386.322845,-197.044235,181,158,131
-152.027298,385.005798,-196.404587,181,158,131
-149.704681,384.656128,-196.249695,180,158,130
-147.393066,384.323822,-196.103485,179,157,129
-144.939667,383.599426,-195.760635,178,156,127
-142.372467,382.541412,-195.250427,178,156,126
-140.126312,382.338043,-195.168701,178,155,128
-138.350525,383.449524,-195.746429,180,157,131
-136.539062,384.492920,-196.290100,177,154,129
-134.234512,384.137360,-196.132111,180,155,128
-131.933014,383.777588,-195.971924,177,154,127
-129.233337,382.209717,-195.205521,177,155,126
-126.624001,380.862671,-194.549789,178,156,127
-124.238815,380.163147,-194.218842,179,155,125
-121.458527,378.189575,-193.248367,182,158,129
-118.748337,376.369049,-192.354523,181,157,128
-116.563148,376.199127,-192.289108,184,159,133
-114.096283,375.082031,-191.748123,179,154,130
-112.503433,376.890228,-192.675888,180,155,130
-110.216339,376.362488,-192.430786,177,155,129
-108.240967,376.912811,-192.727066,180,156,129
-106.009232,376.560150,-192.569824,180,156,129
-104.256378,377.951080,-193.288437,175,150,124
-102.479591,379.308411,-193.990295,178,153,126
-101.543076,383.941040,-196.337936,178,153,126
-99.545029,384.617645,-196.698181,178,153,126
-96.894707,382.711945,-195.760742,178,154,127
-94.742882,382.757843,-195.803970,177,153,126
-91.845596,379.681793,-194.277985,177,152,125
-90.486557,383.052521,-195.992477,177,152,124
-88.727882,384.830200,-196.906387,180,155,128
-86.306770,383.712189,-196.364502,175,151,124
-84.123154,383.631195,-196.343979,177,152,126
-81.715454,382.481720,-195.786087,179,154,128
-79.270241,381.085236,-195.103851,178,153,127
-77.106918,381.018555,-195.090363,178,154,128
-75.043358,381.458679,-195.331802,180,155,129
-72.974792,381.895477,-195.571640,181,156,131
-70.804657,381.801880,-195.544632,180,155,129
-68.456505,380.698517,-195.009460,185,161,134
-66.293442,380.595642,-194.977722,186,160,134
-64.177917,380.768188,-195.084564,188,161,133
-62.155952,381.529877,-195.487976,190,163,135
-60.162014,382.522583,-196.007767,189,163,135
-57.363724,378.227295,-193.865295,189,165,138
-54.891289,375.853577,-192.689911,192,167,138
-52.532719,374.106354,-191.829773,194,167,139
-50.343800,373.481171,-191.534561,193,166,138
-48.125961,372.572418,-191.096436,193,166,138
-45.893497,371.458130,-190.554688,191,164,138
-43.694996,370.524872,-190.104034,188,163,137
-41.654678,370.914124,-190.319565,188,163,136
-39.644806,371.626831,-190.698166,184,160,133
-37.507370,371.142548,-190.473572,185,160,134
-35.339809,370.279327,-190.057983,184,159,134
-33.185810,369.455933,-189.662369,181,158,133
-30.995378,368.083954,-188.990112,182,159,134
-28.944098,368.288879,-189.112717,184,161,136
-26.930698,369.038483,-189.509964,183,158,133
-24.879042,369.335388,-189.678986,182,157,132
-22.712179,367.813293,-188.930725,182,158,135
-20.515228,365.450317,-187.758224,184,161,138
-18.147434,359.201355,-184.625351,185,162,139
-16.228867,361.343140,-185.724609,185,162,139
-14.107261,358.961304,-184.541870,187,163,140
-12.146389,360.490997,-185.332458,188,165,142
-10.238963,364.447784,-187.347931,191,168,145
-8.149421,362.427521,-186.347458,194,170,147
-6.153052,364.374878,-187.349228,198,174,153
-4.119042,364.960938,-187.664093,204,182,160
-1.987397,351.998779,-181.139709,204,183,159
-0.013297,350.520630,-180.411865,214,195,173
1.966917,354.441132,-182.409683,215,196,174
3.990292,358.416748,-184.435745,219,199,178
5.976118,357.083649,-183.781219,225,205,184
8.101566,363.223389,-186.900848,234,216,195
10.227739,366.834839,-188.744003,241,221,203
12.361879,369.461334,-190.089951,251,231,211
14.341554,367.169647,-188.951385,253,234,208
16.581152,371.571625,-191.194763,254,237,207
18.840597,375.392151,-193.144730,253,234,213
21.482115,385.565094,-198.305435,253,232,216
23.524164,383.717773,-197.391815,251,231,215
24.429344,364.591217,-187.743713,240,220,201
26.728910,368.362396,-189.669144,233,213,194
28.987692,371.053009,-191.048615,224,202,185
30.948551,369.709015,-190.388382,219,197,180
32.864788,368.024841,-189.555954,214,195,174
34.879288,367.614655,-189.367645,209,188,164
36.966412,368.000702,-189.582031,205,184,160
39.498665,372.674927,-191.965561,197,176,152
42.227005,378.690582,-195.028152,194,173,149
44.444271,379.644257,-195.530334,192,171,147
46.841183,382.019958,-196.752151,191,169,147
48.787788,380.583374,-196.044998,188,166,145
50.590347,378.165344,-194.841003,187,164,143
52.679348,378.055908,-194.805222,185,162,141
54.824020,378.352631,-194.975052,183,159,136
56.547176,375.756561,-193.680420,183,160,136
57.899403,370.911743,-191.247009,182,159,134
59.848888,370.195770,-190.903702,181,158,133
61.662781,368.699066,-190.164978,182,159,134
63.950859,370.116241,-190.901810,185,160,135
66.245026,371.482269,-191.612900,183,160,136
68.399452,371.988983,-191.888809,184,161,135
70.194420,370.523956,-191.165909,187,163,139
72.077431,369.607910,-190.721008,188,163,140
73.674149,367.282928,-189.562057,189,163,141
76.475029,371.070648,-191.500519,188,161,139
80.823326,382.148315,-197.133926,185,161,136
89.705368,414.033356,-213.314728,177,154,129
96.901688,436.575958,-224.763062,177,156,133
102.392876,450.374023,-231.780594,172,149,126
116.503235,501.246033,-257.596222,169,146,121
131.403473,553.130066,-283.930176,168,145,118
139.983841,576.251465,-295.683624,168,148,120
144.554825,581.967896,-298.612366,160,137,112
155.313873,612.170227,-313.961151,161,138,113
169.445709,654.283752,-335.355042,165,142,120
192.000977,726.909729,-372.232483,161,140,117
234.807739,872.561890,-446.167938,156,135,112
276.562195,1008.527649,-515.203125,151,128,101
307.478241,1100.098389,-561.723328,158,137,114
340.944000,1197.171997,-611.045593,157,135,116
365.562195,1259.898804,-642.944458,151,129,112
397.809448,1346.289673,-686.861755,145,125,102
429.442596,1427.497437,-728.156677,147,125,102
453.947357,1482.408813,-756.108643,143,120,95
448.273529,1438.039062,-733.654480,144,120,89
423.060364,1333.245605,-680.511841,148,121,87
439.641083,1362.280884,-695.325623,154,126,100
466.520050,1421.924561,-725.688965,144,121,94
490.177734,1469.910645,-750.136536,134,116,85
509.899384,1504.681641,-767.875549,142,123,99
516.989563,1501.475464,-766.322998,130,107,86
527.424561,1507.988892,-769.708801,127,103,86
548.869080,1545.468872,-788.831604,133,110,95
559.889465,1552.764160,-792.617615,120,99,87
571.405457,1561.209106,-796.988647,111,90,79
581.367737,1565.207031,-799.099976,100,86,69
590.841248,1567.791626,-800.493225,111,98,74
598.742920,1566.175171,-799.750916,106,94,62
606.764404,1564.919800,-799.191895,81,69,33
614.540833,1563.077637,-798.334412,91,81,44
623.945801,1565.397217,-799.593201,79,68,42
635.119690,1572.059570,-803.061096,65,53,38
643.630310,1572.012939,-803.116882,88,74,71
651.889648,1571.362793,-802.865784,78,63,55
660.194580,1570.843750,-802.681152,83,64,55
669.330994,1572.305420,-803.504333,74,54,46
677.377319,1571.193726,-803.018066,58,43,36
687.328613,1574.499634,-804.780029,67,59,51
696.198059,1575.268799,-805.250977,73,61,67
705.225769,1576.379150,-805.895935,60,43,56
713.456177,1575.697754,-805.628662,59,44,38
721.917175,1575.542603,-805.629272,61,48,36
729.830566,1574.208374,-805.029480,61,45,27
737.690369,1572.794189,-804.388733,64,52,34
742.557495,1565.077881,-800.538391,49,42,27
747.211060,1557.092041,-796.549927,57,49,41
749.763245,1544.937134,-790.437073,62,52,52
757.330139,1543.324341,-789.693298,54,46,39
766.922058,1545.852661,-791.059265,43,36,25
783.947144,1563.225220,-799.989136,44,37,36
800.146118,1578.593018,-807.898987,44,38,40
809.890747,1580.979980,-809.195007,40,33,30
821.447998,1586.839111,-812.260925,46,39,36
829.781189,1586.387695,-812.110718,50,42,37
840.529297,1590.541016,-814.307922,48,40,33
847.329285,1587.182617,-812.675781,43,38,25
854.803406,1585.151611,-811.720093,36,32,15
863.785645,1585.946533,-812.205261,24,22,0
872.226990,1585.741577,-812.180481,40,34,16
877.971130,1580.664551,-809.670837,36,32,19
886.693054,1581.023926,-809.933655,33,27,10
894.390259,1579.561523,-809.267151,55,48,36
901.983337,1577.947021,-808.522705,43,37,22
910.698425,1578.319946,-808.792358,43,34,8
917.618347,1575.592163,-807.479797,53,45,23
926.218140,1575.789307,-807.659485,52,43,22
933.178833,1573.209839,-806.422119,45,36,13
940.350891,1571.034668,-805.390808,42,29,11
947.271484,1568.483032,-804.167175,51,44,33
-263.381958,388.257843,-199.327881,189,165,136
-261.043549,388.099976,-199.268814,186,162,133
-260.755829,391.062286,-200.784225,189,164,135
-256.406830,387.835236,-199.176315,187,163,134
-255.281448,389.547150,-200.060883,189,164,136
-251.095917,386.503601,-198.545166,189,164,138
-248.499298,385.911652,-198.266785,188,163,134
