682.027161,2581.930176,-1290.178467,175,180,179
695.483643,2580.239014,-1289.623901,180,185,184
708.919067,2578.545410,-1289.067505,188,193,192
722.334534,2576.853027,-1288.511475,159,163,164
735.189453,2573.267822,-1287.034546,130,133,134
748.553284,2571.572266,-1286.475952,169,174,171
761.950623,2570.059326,-1286.005615,171,176,173
775.220581,2568.183350,-1285.358643,174,177,177
788.003479,2564.793945,-1283.974243,170,173,172
800.690735,2561.220947,-1282.499878,169,172,170
815.131042,2563.294922,-1283.774414,160,163,161
828.305786,2561.387695,-1283.110596,181,186,181
843.794556,2566.596924,-1285.913086,161,165,161
853.910522,2555.544922,-1280.792725,195,201,196
870.760010,2564.707520,-1285.522705,172,177,172
879.836670,2551.023438,-1279.116699,161,165,161
885.777893,2528.800537,-1268.544312,180,184,180
838.138245,2356.379395,-1184.716064,16,11,21
368.770386,1019.214294,-532.688538,2,1,3
369.540680,1006.266479,-526.477051,1,2,3
373.289490,1001.718506,-524.362000,12,13,16
377.625366,998.861084,-523.071289,10,10,15
382.659424,997.914001,-522.712585,3,5,11
386.989899,995.178406,-521.480347,2,4,9
392.000763,994.252563,-521.131348,13,16,23
396.643982,992.429932,-520.344055,-1,0,8
402.017517,992.468323,-520.465820,18,23,28
406.632599,990.651794,-519.680908,-2,1,8
411.619171,989.781433,-519.358215,28,30,37
416.594910,988.909546,-519.034485,26,26,34
421.170868,987.119934,-518.261902,39,40,47
426.516022,987.165771,-518.386597,42,43,50
431.861206,987.211975,-518.511536,35,36,43
436.815155,986.371521,-518.202515,44,45,52
442.154663,986.417358,-518.327148,50,50,57
447.094391,985.578186,-518.018494,28,28,35
452.010406,984.708496,-517.694763,38,40,46
456.933441,983.875977,-517.388977,19,20,27
462.255157,983.916931,-517.510925,18,20,28
467.126099,983.005432,-517.166199,39,41,49
472.005341,982.133179,-516.840515,41,42,49
476.440186,980.362732,-516.074280,34,38,46
481.295593,979.492920,-515.749329,40,39,45
486.114929,978.570435,-515.398376,58,57,61
491.392029,978.585999,-515.507202,18,19,24
495.798004,976.876953,-514.770020,27,27,35
500.613800,976.008911,-514.445129,21,23,31
505.875000,976.024231,-514.553528,37,42,45
510.672821,975.151123,-514.225891,43,44,52
515.927917,975.166321,-514.334167,56,59,64
520.742188,974.353271,-514.035706,30,29,40
525.989990,974.365662,-514.142456,88,95,100
531.302551,974.498596,-514.308472,90,99,103
536.583374,974.572327,-514.445374,71,75,81
541.866882,974.651245,-514.584839,63,64,72
548.157410,976.534485,-515.611267,11,13,21
553.446533,976.606018,-515.747314,50,48,58
558.680603,976.580811,-515.835754,44,42,52
565.005554,978.458008,-516.859924,17,12,26
571.715881,980.967285,-518.195496,19,16,32
579.754028,985.703491,-520.627441,55,55,63
587.157959,989.280579,-522.489929,60,58,70
599.461670,1001.026245,-528.374512,54,55,65
-1733.770508,2665.065674,-1298.909180,125,120,115
-1720.342407,2667.113037,-1300.162354,127,124,120
-1705.677490,2667.248779,-1300.508789,125,123,119
-1690.980835,2667.333008,-1300.830811,119,116,113
-1675.243652,2665.751221,-1300.362427,125,124,121
-1659.478760,2664.093262,-1299.857544,136,135,133
-1644.885864,2664.308838,-1300.241455,140,139,136
-1631.375488,2666.302246,-1301.469849,134,134,129
-1615.641113,2664.643311,-1300.963745,140,140,135
-1598.814575,2661.122803,-1299.573242,136,136,131
-1584.234619,2661.325439,-1299.950562,136,136,131
-1569.658081,2661.533691,-1300.330933,133,132,128
-1553.996216,2659.875488,-1299.823608,127,125,121
-1538.354614,2658.216553,-1299.315796,136,135,132
-1523.795044,2658.418213,-1299.692505,136,135,132
-1508.187134,2656.764404,-1299.186646,128,128,125
-1493.640869,2656.971680,-1299.565674,173,173,167
-1478.006226,2655.214600,-1299.010010,161,161,154
-1462.444702,2653.550293,-1298.498169,176,176,168
-1446.961060,2651.992432,-1298.036377,145,144,140
-1432.445312,2652.199219,-1298.414673,154,153,148
-1417.926392,2652.400391,-1298.790405,137,135,133
-1402.430298,2650.745117,-1298.281616,143,142,139
-1387.924805,2650.951904,-1298.659668,142,141,139
-1373.367798,2651.058350,-1298.990112,139,138,136
-1357.961182,2649.497559,-1298.525391,142,141,138
-1343.465942,2649.704102,-1298.903198,139,139,136
-1327.988892,2647.943359,-1298.342773,156,157,152
-1312.631348,2646.380615,-1297.876221,145,145,141
-1298.156738,2646.587646,-1298.254028,145,145,142
-1283.635620,2646.698730,-1298.585815,139,138,136
-1269.112549,2646.803223,-1298.914429,152,151,149
-1253.804077,2645.239258,-1298.446655,152,152,148
-1239.335815,2645.437012,-1298.819580,143,143,138
-1224.009155,2643.770264,-1298.302002,137,137,134
-1208.705444,2642.109131,-1297.786743,140,140,135
-1193.468018,2640.549805,-1297.319702,132,133,127
-1178.977783,2640.629639,-1297.635498,144,145,140
-1164.541504,2640.829102,-1298.008911,120,120,115
-1149.295288,2639.158447,-1297.487915,138,138,133
-1134.129883,2637.629150,-1297.033936,150,152,146
-1120.387817,2639.425293,-1298.170654,136,138,132
-1105.241455,2637.893799,-1297.715454,131,133,129
-1090.774536,2637.968262,-1298.028442,137,139,135
-1075.658203,2636.438721,-1297.573486,135,136,133
-1061.255981,2636.645020,-1297.949463,142,143,140
-1046.113647,2634.977783,-1297.427979,149,151,145
-1030.992432,2633.311523,-1296.906616,150,149,143
-1017.274719,2635.248779,-1298.111572,144,142,136
-1002.885315,2635.460449,-1298.489868,154,150,142
-987.798279,2633.801514,-1297.971313,145,141,133
-973.418335,2634.011719,-1298.348877,153,149,142
-958.363342,2632.357178,-1297.831787,160,157,149
-943.991760,2632.562500,-1298.206787,145,141,136
-929.577820,2632.646484,-1298.523438,158,154,146
-914.604065,2631.107666,-1298.061279,166,162,154
-900.241943,2631.310547,-1298.434692,155,151,144
-885.882690,2631.522461,-1298.812500,148,144,136
-871.484558,2631.615967,-1299.133423,168,164,157
-856.557007,2630.070312,-1298.667236,149,146,138
-842.205566,2630.274902,-1299.041382,155,152,142
-827.824585,2630.385254,-1299.369995,137,134,125
-812.933960,2628.833984,-1298.900146,145,141,133
-798.567200,2628.954102,-1299.233398,133,129,123
-783.704895,2627.399902,-1298.761719,148,144,136
-769.373657,2627.604736,-1299.135742,146,142,135
-755.043457,2627.812988,-1299.511230,144,140,132
-740.189148,2626.149902,-1298.986328,160,156,148
-726.358459,2628.140381,-1300.219238,155,151,143
-711.524658,2626.476562,-1299.693481,147,143,135
-696.731201,2624.888428,-1299.203979,156,152,145
-682.420532,2625.093750,-1299.577759,160,158,150
-668.109558,2625.297852,-1299.950806,150,145,140
-653.314575,2623.545654,-1299.381348,140,139,132
-639.013916,2623.748047,-1299.753418,160,158,151
-624.288818,2622.156250,-1299.260742,137,135,129
-609.584595,2620.569580,-1298.770020,141,139,132
-595.285278,2620.691895,-1299.103149,150,148,142
-581.005005,2620.895996,-1299.475830,152,150,144
-566.723999,2621.097656,-1299.847168,141,139,135
-552.068726,2619.509766,-1299.354858,128,126,122
-537.416321,2617.840332,-1298.823120,143,143,138
-523.139282,2617.960938,-1299.155029,127,128,125
-508.862915,2618.079834,-1299.485962,124,124,123
-494.282959,2616.574463,-1299.032593,145,146,145
-480.018951,2616.702881,-1299.367798,152,153,152
-465.783234,2616.987305,-1299.778564,138,140,137
-451.211945,2615.315430,-1299.243896,150,151,148
-436.972076,2615.520752,-1299.616333,163,164,161
-422.732147,2615.725830,-1299.988525,133,135,132
-408.492188,2615.930908,-1300.360840,136,137,135
-393.981903,2614.326660,-1299.858032,132,133,130
-379.751160,2614.527588,-1300.228027,137,138,135
-365.511108,2614.661377,-1300.565430,131,130,126
-351.520905,2616.666992,-1301.808960,114,113,110
-337.048828,2615.050781,-1301.299561,105,105,100
-322.369507,2611.577881,-1299.890869,104,104,98
-308.378235,2613.653809,-1301.168579,109,109,102
-293.322357,2606.352295,-1297.904297,24,16,18
-275.595032,2573.059814,-1282.046875,11,-1,-1
-255.936325,2516.929932,-1255.116211,44,32,23
-239.521439,2488.490234,-1241.594604,27,16,8
-226.007874,2488.950439,-1242.076904,27,26,28
-212.311737,2487.276855,-1241.524658,42,46,49
-198.789490,2487.553711,-1241.918091,33,35,40
-185.815292,2495.312744,-1245.941040,4,2,10
-173.616837,2515.697266,-1256.091431,68,70,71
-162.188095,2551.895752,-1273.920532,48,51,53
-150.551514,2591.291504,-1293.308838,56,59,61
-137.177094,2605.281250,-1300.370728,48,50,53
-122.965019,2604.394531,-1300.211060,48,53,54
-108.661720,2600.984131,-1298.825562,125,130,129
-94.591553,2603.050781,-1300.100342,51,56,57
-80.390244,2601.419922,-1299.578491,44,49,51
-66.253929,2601.625244,-1299.948975,47,52,53
-52.081276,2599.937012,-1299.398804,43,48,50
-37.954876,2600.123047,-1299.759521,48,53,54
-23.812784,2598.408691,-1299.196167,48,53,55
-9.691313,2596.654297,-1298.612549,48,53,54
4.389275,2586.960693,-1294.166504,47,52,53
18.349806,2575.622314,-1288.917358,44,46,49
32.114380,2558.940430,-1281.064941,49,52,54
45.320389,2522.169678,-1263.428955,130,129,119
57.983768,2479.483154,-1242.904297,68,54,35
71.033806,2465.595703,-1236.397827,0,1,3
84.045151,2454.960205,-1231.472900,2,2,5
97.084595,2447.922363,-1228.298462,11,11,17
110.368797,2447.942627,-1228.562500,33,35,41
123.853210,2451.908936,-1230.750000,26,27,33
137.145370,2451.757324,-1230.930542,36,37,44
152.431808,2483.852051,-1246.836914,32,33,38
174.426575,2610.415039,-1308.829834,184,189,191
189.721741,2626.144043,-1316.774536,161,165,167
203.254684,2617.181885,-1312.673340,177,181,183
217.141296,2613.636230,-1311.214233,188,195,193
230.650223,2606.300537,-1307.903931,171,176,175
244.611023,2604.615967,-1307.351440,190,195,194
258.557129,2602.988525,-1306.826416,214,221,219
272.273621,2599.364502,-1305.325806,183,189,188
286.364380,2599.499512,-1305.661255,202,209,207
300.251038,2597.880615,-1305.139160,187,192,192
314.110046,2596.195557,-1304.584595,188,193,193
327.949127,2594.513916,-1304.031250,168,172,174
341.767487,2592.829102,-1303.475830,181,186,187
355.824158,2593.024658,-1303.840088,171,176,176
369.625610,2591.435059,-1303.330811,161,166,168
383.379181,2589.653076,-1302.726929,176,180,183
397.126160,2587.966797,-1302.169678,193,198,199
410.852875,2586.280762,-1301.612061,199,206,205
424.575623,2584.694336,-1301.102905,182,187,188
438.565521,2584.794189,-1301.419067,185,190,190
452.241241,2583.107178,-1300.859985,199,204,204
465.896545,2581.419922,-1300.300415,199,206,205
479.531525,2579.732422,-1299.740234,181,186,185
493.147186,2578.049561,-1299.182129,189,196,195
506.760651,2576.459229,-1298.668701,184,192,191
519.952881,2572.880371,-1297.180054,183,189,189
533.498047,2571.197754,-1296.620605,189,196,195
546.998657,2569.401367,-1296.005005,187,192,191
560.501282,2567.712158,-1295.441528,170,175,176
573.983521,2566.022461,-1294.877441,171,176,175
587.446655,2564.337891,-1294.315552,179,184,183
600.888000,2562.647461,-1293.750244,180,185,185
614.309143,2560.957031,-1293.184570,181,186,186
627.735046,2559.368652,-1292.668823,191,197,196
640.643494,2555.791748,-1291.175659,162,167,167
654.448364,2555.876465,-1291.480957,167,172,171
667.787964,2554.184570,-1290.912964,157,162,163
681.108887,2552.499023,-1290.348022,211,217,210
694.407776,2550.806641,-1289.779175,150,155,155
707.720032,2549.236084,-1289.269531,187,194,191
721.475708,2549.300293,-1289.563965,164,169,168
734.224304,2545.874268,-1288.141235,185,190,188
747.446899,2544.195801,-1287.577759,163,169,166
760.646118,2542.506836,-1287.008545,174,178,176
773.191406,2538.734375,-1285.413208,167,170,170
785.229187,2533.460938,-1283.078003,170,175,173
800.117310,2537.422852,-1285.290283,177,181,179
812.628113,2533.837646,-1283.785400,163,166,164
826.335632,2534.050781,-1284.151489,153,156,156
841.276978,2537.990723,-1286.354126,150,153,151
850.030457,2523.417236,-1279.431641,169,174,170
870.244019,2542.839111,-1289.266968,163,166,164
876.913330,2522.648926,-1279.572144,154,158,156
370.830719,1048.413818,-552.683228,26,21,31
364.394684,1014.590515,-536.105286,5,4,7
367.784882,1008.821960,-533.363770,1,2,5
370.090057,1000.279297,-529.251953,1,1,6
374.776703,998.352600,-528.404297,15,17,21
379.114655,995.563232,-527.130249,5,5,12
383.788940,993.728088,-526.326904,3,5,10
388.075195,990.950378,-525.057556,10,10,18
393.066803,990.034180,-524.707275,1,1,10
397.671997,988.180115,-523.893433,17,19,26
402.284271,986.394348,-523.112915,0,1,9
407.253540,985.524841,-522.784973,23,22,31
412.594025,985.570374,-522.909302,51,51,58
417.547302,984.699341,-522.580322,10,6,18
422.502808,983.857300,-522.265442,50,52,58
427.832520,983.902527,-522.389404,34,37,43
432.773621,983.061462,-522.074829,22,22,29
438.098755,983.108582,-522.199646,0,2,10
443.012848,982.240479,-521.871338,1,3,13
447.916290,981.371216,-521.542236,35,34,44
453.244232,981.447693,-521.681396,38,39,45
458.133118,980.579651,-521.352600,27,29,37
463.011200,979.710022,-521.022888,-1,1,8
467.879181,978.840454,-520.692993,4,5,13
472.736023,977.968689,-520.361755,29,33,41
477.560974,977.052124,-520.008179,5,4,14
482.397034,976.179749,-519.676270,3,2,13
486.751984,974.359192,-518.873901,2,0,12
491.562408,973.486328,-518.541260,13,13,20
496.362854,972.613525,-518.208496,5,2,14
501.155151,971.744507,-517.877441,2,2,9
506.394562,971.757751,-517.984131,10,12,18
511.199768,970.943054,-517.679749,47,45,53
515.964783,970.070068,-517.346130,51,52,61
521.226013,970.144897,-517.483215,44,48,52
526.453308,970.157104,-517.589172,24,27,33
531.748169,970.294434,-517.757324,77,77,84
537.488953,971.240967,-518.327637,90,90,97
542.796143,971.390381,-518.501892,62,63,72
548.018799,971.387695,-518.600525,62,65,71
553.280884,971.455994,-518.734375,101,105,112
559.576904,973.333679,-519.768311,86,88,95
565.302185,974.188477,-520.293701,39,40,48
571.000793,974.983398,-520.789429,66,68,77
577.599548,977.297546,-522.041565,27,27,35
584.762085,980.522705,-523.747559,38,35,49
595.096130,988.994324,-528.066711,20,20,33
-1726.294922,2640.439209,-1302.112061,132,128,122
-1709.990967,2637.821045,-1301.134399,127,123,118
-1696.723267,2639.900391,-1302.410522,136,133,128
-1682.179321,2640.000244,-1302.736816,130,128,124
-1667.624146,2640.080322,-1303.053345,126,124,122
-1650.827759,2636.561035,-1301.641479,137,137,134
-1636.372559,2636.766357,-1302.017822,135,135,132
-1621.917114,2636.970947,-1302.394043,139,137,133
-1606.330322,2635.310303,-1301.873901,138,135,131
-1591.825439,2635.416260,-1302.202148,143,141,137
-1576.329590,2633.855469,-1301.729492,134,133,128
-1561.895752,2634.062012,-1302.106079,136,136,131
-1546.374634,2632.408447,-1301.587891,135,135,130
-1530.870483,2630.748535,-1301.066406,139,139,135
-1515.386230,2629.088135,-1300.544556,148,148,143
-1500.979614,2629.288086,-1300.917358,114,111,111
-1485.526489,2627.627686,-1300.394409,128,128,125
-1471.133057,2627.833252,-1300.770020,129,126,126
-1456.684692,2627.938965,-1301.097168,138,138,133
-1441.324341,2626.372314,-1300.619019,137,136,132
-1425.935059,2624.716309,-1300.097168,153,153,147
-1411.559448,2624.916504,-1300.469482,186,186,180
-1397.186279,2625.121338,-1300.844116,150,149,145
-1381.837402,2623.464355,-1300.320923,148,148,143
-1367.424438,2623.572510,-1300.649048,145,144,141
-1352.153687,2622.006592,-1300.169434,142,141,137
-1337.753784,2622.118164,-1300.498779,141,141,136
-1323.398560,2622.317139,-1300.869995,151,150,147
-1308.165527,2620.748047,-1300.387939,153,153,150
-1292.908325,2619.089600,-1299.862549,149,149,145
-1277.713745,2617.518555,-1299.379028,152,152,148
-1263.346680,2617.630127,-1299.707520,148,148,144
-1248.975586,2617.731689,-1300.031006,137,136,133
-1233.825439,2616.169189,-1299.551025,148,148,143
-1218.646484,2614.503662,-1299.020508,156,158,153
-1204.293579,2614.595947,-1299.339355,149,151,146
-1189.196655,2613.041992,-1298.862183,166,168,162
-1174.851807,2613.126221,-1299.177002,141,142,137
-1160.558350,2613.324707,-1299.546997,152,154,148
-1145.505249,2611.781250,-1299.074219,139,141,136
-1131.166870,2611.852051,-1299.382324,152,153,150
-1116.087769,2610.178467,-1298.845947,137,139,135
-1101.763184,2610.252930,-1299.155640,137,138,135
-1086.772827,2608.717041,-1298.685303,136,137,134
-1072.513916,2608.923584,-1299.058716,148,150,146
-1058.204224,2609.003906,-1299.370850,134,136,132
-1043.941162,2609.198975,-1299.738525,140,142,138
-1028.999634,2607.664307,-1299.268066,129,129,124
-1014.749023,2607.866211,-1299.638916,146,144,136
-999.785828,2606.199951,-1299.103760,148,147,138
-985.546631,2606.404785,-1299.476074,160,158,150
-970.615540,2604.742188,-1298.942383,146,141,136
-956.386230,2604.946289,-1299.313843,143,141,133
-942.114380,2605.031982,-1299.627686,153,152,143
-927.883057,2605.228760,-1299.995728,170,169,157
-913.614075,2605.317139,-1300.311157,149,145,138
-899.427368,2605.641602,-1300.741089,133,129,121
-884.568176,2603.978516,-1300.205688,171,169,161
-870.351257,2604.187500,-1300.579468,161,157,150
-856.131714,2604.388428,-1300.949341,155,151,143
-841.317444,2602.738281,-1300.419434,148,144,134
-827.077637,2602.843018,-1300.742310,164,161,153
-812.875427,2603.065918,-1301.122437,128,122,118
-798.128357,2601.501709,-1300.633667,159,156,149
-783.906128,2601.626465,-1300.966064,153,151,142
-769.710938,2601.839844,-1301.341431,133,130,122
-755.513977,2602.047363,-1301.714111,126,118,115
-740.810486,2600.465820,-1301.216064,141,137,131
-726.601074,2600.593506,-1301.549438,145,141,135
-711.904053,2598.927246,-1301.009399,152,148,142
-697.726196,2599.130859,-1301.379639,154,150,143
-683.078308,2597.535156,-1300.873535,160,157,148
-668.909729,2597.737305,-1301.242920,141,139,134
-654.271912,2596.064209,-1300.698486,188,187,176
-640.113220,2596.264648,-1301.067017,150,148,141
-625.953735,2596.460938,-1301.433350,139,137,131
-611.357178,2594.790039,-1300.889038,147,145,138
-597.209839,2594.995117,-1301.259521,168,167,160
-582.643738,2593.322998,-1300.714233,146,144,140
-568.505493,2593.522461,-1301.081787,112,109,105
-553.986938,2591.930420,-1300.574951,137,137,132
-539.471802,2590.259766,-1300.029175,197,200,189
-525.353760,2590.460693,-1300.397095,163,163,161
-511.220398,2590.583740,-1300.727051,143,144,142
-497.102448,2590.783203,-1301.093994,145,146,144
-482.653198,2589.190918,-1300.585693,154,155,153
-468.545898,2589.394775,-1300.954956,151,152,151
-454.438599,2589.599121,-1301.324219,142,143,142
-440.015076,2587.927979,-1300.776489,131,133,129
-426.212585,2589.938232,-1302.028931,152,156,152
-411.820190,2588.333008,-1301.512939,135,136,135
-397.722626,2588.535156,-1301.881104,136,138,134
-383.624786,2588.735107,-1302.248169,142,144,140
-369.270935,2587.124512,-1301.729004,130,130,125
-355.173920,2587.258057,-1302.063354,91,90,87
-341.095490,2587.528564,-1302.464722,121,121,116
-326.996216,2587.639160,-1302.787598,115,115,108
-312.919586,2587.929688,-1303.198853,100,98,90
-298.002197,2580.870117,-1300.008911,95,78,59
-281.719910,2560.542969,-1290.315796,143,116,84
-263.504639,2519.362793,-1270.397339,181,152,111
-246.221939,2483.115479,-1252.888550,187,157,113
-232.735779,2483.621582,-1253.394653,197,167,127
-219.387558,2485.750977,-1254.696777,76,64,42
-205.710770,2484.114502,-1254.151978,36,36,40
-192.217499,2484.624268,-1254.660034,1,0,4
-180.665741,2512.597656,-1268.646118,33,38,40
-169.030258,2543.899658,-1284.272217,36,39,41
-156.836517,2571.520264,-1298.097168,63,67,69
-142.991928,2574.329834,-1299.743530,51,55,56
-129.188675,2578.556641,-1302.086548,50,54,56
-115.173691,2578.937988,-1302.541260,53,57,59
-101.013878,2575.587402,-1301.162231,47,52,53
-87.010651,2575.830811,-1301.548706,49,54,56
-73.004112,2575.970215,-1301.884277,47,52,53
-58.956257,2574.204590,-1301.282837,47,52,54
-44.932415,2572.602051,-1300.761230,59,64,65
-30.948086,2572.786377,-1301.118652,52,56,58
-16.963852,2572.958252,-1301.469604,51,56,57
-2.979858,2572.963623,-1301.738892,43,48,49
10.974995,2567.621094,-1299.375244,47,52,54
24.883606,2563.593262,-1297.658203,48,53,54
38.567917,2548.323242,-1290.404297,47,49,51
51.786751,2519.060303,-1276.255371,128,125,115
64.015999,2464.675537,-1249.724487,15,11,9
76.988007,2451.808350,-1243.639648,0,1,2
90.028702,2444.536621,-1240.309448,1,2,5
103.230339,2442.893799,-1239.752563,10,10,17
116.584015,2444.801758,-1240.945923,32,34,40
129.873169,2445.167480,-1241.379150,43,44,48
142.816223,2439.649902,-1238.910278,44,45,50
157.283005,2458.690674,-1248.556152,38,38,43
175.382446,2526.742188,-1282.390503,176,183,182
193.917023,2590.837402,-1314.286011,175,181,182
207.722000,2587.825195,-1313.066650,173,180,180
221.120300,2580.496826,-1309.715332,172,179,177
234.782089,2576.934082,-1308.222412,183,188,187
248.767929,2577.132080,-1308.586304,202,209,207
262.561127,2575.447754,-1308.020142,172,177,176
276.333801,2573.762695,-1307.453369,170,175,176
290.086151,2572.077148,-1306.885864,191,196,198
303.826508,2570.462158,-1306.353027,196,201,202
317.763306,2570.589844,-1306.681274,172,176,180
331.220795,2567.018311,-1305.180054,197,202,203
344.904114,2565.424561,-1304.656372,141,145,150
358.806213,2565.529297,-1304.972900,174,180,180
372.446533,2563.843018,-1304.402832,176,182,182
386.066406,2562.155762,-1303.832031,225,233,231
399.681824,2560.569824,-1303.311035,197,202,202
413.261414,2558.881348,-1302.738647,196,203,202
427.119110,2558.978760,-1303.050659,185,191,192
440.667725,2557.291016,-1302.478149,196,202,201
454.196014,2555.602783,-1301.905029,201,206,205
467.703827,2553.913574,-1301.331299,160,165,164
481.192352,2552.230469,-1300.759766,176,182,183
494.659576,2550.541260,-1300.185181,176,183,182
508.105164,2548.845947,-1299.607178,195,203,201
521.531494,2547.156250,-1299.031372,214,220,219
534.937561,2545.466064,-1298.455078,171,176,175
548.323242,2543.775879,-1297.878052,189,194,195
561.688477,2542.085205,-1297.300781,185,190,189
574.606262,2538.507080,-1295.786011,176,181,181
587.508423,2535.037109,-1294.324219,184,190,189
601.214539,2535.123779,-1294.628174,169,175,174
614.489563,2533.438232,-1294.051514,178,183,183
627.741394,2531.739746,-1293.468018,181,186,186
641.003174,2530.161865,-1292.944214,186,192,191
654.216553,2528.469727,-1292.363281,183,188,187
667.409302,2526.777344,-1291.781738,189,194,192
681.058899,2526.855469,-1292.080322,194,199,196
693.701050,2523.271484,-1290.557495,154,158,158
706.831543,2521.575684,-1289.972900,187,192,192
719.452759,2518.167236,-1288.536133,189,195,193
732.534241,2516.474365,-1287.952148,184,190,187
745.600586,2514.798828,-1287.376465,144,150,147
758.634033,2513.081055,-1286.779541,152,156,156
771.654907,2511.388672,-1286.194824,168,171,169
784.060425,2507.791016,-1284.660645,177,182,178
798.237976,2509.899902,-1285.968384,143,148,144
810.590454,2506.294678,-1284.429810,177,182,178
823.656738,2504.987793,-1284.035522,174,179,177
832.868103,2492.178467,-1277.907349,173,179,174
851.974915,2508.960938,-1286.530396,158,161,159
858.654785,2489.152100,-1276.909180,153,157,155
866.279541,2472.657227,-1268.937134,37,37,44
365.554413,1025.489990,-547.220703,9,6,8
364.286316,1006.589050,-537.895081,3,3,6
369.280029,1005.357056,-537.383911,8,8,13
371.908234,997.791260,-533.710693,3,3,8
375.554504,993.145996,-531.494202,7,8,13
379.850769,990.334839,-530.192627,22,26,30
383.779846,986.655640,-528.456909,3,5,13
388.756256,985.745850,-528.103943,25,23,30
393.360535,983.927734,-527.296936,9,9,16
398.326965,983.057556,-526.963379,23,25,32
403.657440,983.102844,-527.087158,34,37,43
408.609253,982.234497,-526.754211,3,2,13
413.933838,982.278992,-526.877502,54,55,64
418.869537,981.408752,-526.543335,40,40,49
423.807404,980.567261,-526.223328,38,40,48
428.722900,979.696777,-525.888550,34,35,46
434.045715,979.773254,-526.027649,30,32,38
439.368927,979.850586,-526.167114,16,18,25
444.692352,979.928345,-526.306763,12,15,20
449.583313,979.059570,-525.972412,5,8,14
454.464142,978.190674,-525.637817,-2,0,6
459.759277,978.229492,-525.757812,12,16,22
464.174713,976.408936,-524.945984,32,35,39
469.023712,975.537292,-524.609375,0,0,6
473.862488,974.665466,-524.272522,0,0,8
478.691010,973.793396,-523.935303,24,27,35
483.509521,972.921326,-523.598022,29,33,38
488.317566,972.048950,-523.260315,21,22,31
493.115540,971.176331,-522.922302,-1,3,9
497.903503,970.303955,-522.584229,19,26,30
502.683044,969.434998,-522.247559,23,25,31
507.911621,969.447083,-522.353149,35,37,44
512.205933,967.685669,-521.568176,2,0,7
517.425659,967.701416,-521.675354,4,4,11
522.199097,966.887329,-521.365723,27,33,36
527.411682,966.900757,-521.471558,18,21,30
532.690674,967.036255,-521.638855,31,34,36
537.936035,967.110168,-521.775146,31,35,36
543.711243,968.132874,-522.388428,56,58,63
548.921021,968.134460,-522.488525,41,39,45
554.132446,968.140320,-522.590698,61,61,70
560.434326,970.046387,-523.648743,51,52,60
565.631714,970.013184,-523.731445,60,64,73
571.807129,971.653931,-524.656555,73,77,84
582.834900,981.487427,-529.705872,78,81,87
585.979126,977.909485,-528.005005,100,101,106
-1685.997803,2587.764404,-1291.712646,141,137,131
-1671.795654,2587.963135,-1292.081055,126,123,119
-1658.809692,2590.069824,-1293.376099,127,125,121
-1643.430786,2588.422607,-1292.847778,131,129,126
-1628.064819,2586.763428,-1292.313477,135,133,130
-1612.715820,2585.098145,-1291.775879,128,125,123
-1598.479980,2585.208984,-1292.101074,136,134,132
-1583.218506,2583.635986,-1291.607666,139,136,134
-1567.921875,2581.972412,-1291.069702,154,153,148
-1553.762207,2582.173584,-1291.438599,144,142,138
-1538.497559,2580.511719,-1290.901001,145,142,138
-1524.349121,2580.714355,-1291.270142,141,140,135
-1509.174438,2579.154785,-1290.781860,143,142,138
-1494.976196,2579.253906,-1291.100586,131,128,127
-1479.829468,2577.690674,-1290.609741,134,133,129
-1465.643799,2577.792480,-1290.929688,149,147,142
-1451.515137,2577.994141,-1291.297974,150,150,145
-1436.352051,2576.330322,-1290.757690,148,147,142
-1421.209351,2574.666504,-1290.216553,153,153,148
-1407.098511,2574.863037,-1290.582153,186,187,180
-1391.986328,2573.198730,-1290.040527,153,152,149
-1377.843994,2573.316406,-1290.367310,149,149,144
-1362.809448,2571.740234,-1289.868042,147,147,142
-1348.721802,2571.941406,-1290.235352,137,136,133
-1334.631958,2572.138428,-1290.600830,134,133,131
-1319.592773,2570.477051,-1290.059082,140,140,135
-1305.515137,2570.677490,-1290.426147,142,142,137
-1290.504395,2569.010986,-1289.881348,160,160,155
-1276.392456,2569.121582,-1290.204346,150,149,144
-1261.454956,2567.540771,-1289.700806,118,117,115
-1246.497192,2565.878174,-1289.156738,137,137,134
-1232.405151,2565.984131,-1289.477051,142,142,138
-1217.520874,2564.410645,-1288.976196,149,151,146
-1203.437744,2564.511719,-1289.293579,152,154,148
-1188.585205,2562.942383,-1288.794189,146,148,143
-1174.511230,2563.038818,-1289.109375,154,154,149
-1159.641113,2561.364746,-1288.558105,124,125,119
-1145.623047,2561.559814,-1288.921265,142,144,139
-1130.784546,2559.886963,-1288.369995,122,122,121
-1116.777100,2560.083008,-1288.733398,143,145,141
-1101.969604,2558.410889,-1288.181763,150,154,148
-1087.969482,2558.599121,-1288.541260,145,146,143
-1073.245728,2557.053955,-1288.051636,150,151,148
-1059.260010,2557.253662,-1288.416260,143,144,142
-1045.223633,2557.328857,-1288.719849,141,143,139
-1030.492798,2555.668945,-1288.173218,143,144,139
-1015.823853,2554.113525,-1287.677368,154,154,149
-1001.812805,2554.196045,-1287.984131,150,148,141
-987.847656,2554.394775,-1288.348022,142,140,133
-973.221313,2552.848877,-1287.855957,161,159,151
-959.263306,2553.041016,-1288.216431,154,153,144
-945.266174,2553.126465,-1288.524536,166,164,156
-931.312073,2553.327393,-1288.889160,151,149,143
-917.318176,2553.416748,-1289.199219,161,159,151
-902.745911,2551.857666,-1288.699707,154,151,145
-888.800171,2552.053467,-1289.061523,145,141,133
-874.819946,2552.147461,-1289.373657,154,151,143
-860.877563,2552.351562,-1289.739868,154,152,143
-846.933350,2552.549316,-1290.102905,133,129,122
-832.386414,2550.889160,-1289.552490,138,134,127
-818.455139,2551.095947,-1289.919678,166,165,154
-803.967834,2549.529053,-1289.414551,161,157,150
-790.591675,2551.507568,-1290.653076,157,155,147
-776.097290,2549.853516,-1290.104980,165,163,156
-762.154846,2549.989746,-1290.437134,148,146,140
-748.234070,2550.197754,-1290.804810,197,198,185
-733.776794,2548.531006,-1290.249512,156,154,148
-719.884705,2548.805664,-1290.649780,151,149,143
-705.953064,2548.939697,-1290.980835,158,156,148
-692.039734,2549.138916,-1291.343872,152,151,142
-677.632446,2547.468750,-1290.785767,147,143,138
-663.729126,2547.666992,-1291.148315,146,144,138
-649.808289,2547.796631,-1291.476929,148,146,139
-635.009033,2544.378906,-1290.056641,145,143,137
-621.125061,2544.574219,-1290.417236,161,159,153
-607.241089,2544.769775,-1290.777954,148,146,141
-592.940308,2543.164551,-1290.250244,179,178,170
-579.050537,2543.290283,-1290.576294,172,170,165
-564.780762,2541.690186,-1290.050659,163,161,157
-550.916992,2541.885742,-1290.411011,156,156,151
-537.038513,2542.011230,-1290.736816,157,157,150
-522.807678,2540.407959,-1290.208618,136,136,133
-508.940765,2540.536133,-1290.535400,152,153,150
-494.739014,2538.928955,-1290.005127,145,146,145
-480.896332,2539.127930,-1290.366699,137,137,136
-466.712128,2537.454834,-1289.802979,135,136,135
-453.211243,2539.527832,-1291.090942,158,159,157
-439.368683,2539.728027,-1291.453247,170,172,168
-425.515564,2539.864746,-1291.784058,142,144,140
-411.381927,2538.251465,-1291.249146,148,150,146
-397.549072,2538.448730,-1291.609863,166,168,164
-383.715973,2538.645020,-1291.969849,164,168,163
-369.882568,2538.837891,-1292.328491,154,156,152
-356.048615,2539.027344,-1292.685181,152,154,148
-342.214844,2539.217773,-1293.042358,115,115,110
-328.378937,2539.390137,-1293.390503,99,99,93
-314.097778,2535.929443,-1291.939209,96,94,88
-300.261169,2535.922852,-1292.198242,43,27,21
-285.420563,2526.910400,-1287.993896,138,112,78
-269.660980,2508.309570,-1279.034546,158,131,95
-253.949280,2488.158203,-1269.302246,165,136,95
-238.542389,2468.885010,-1260.001343,173,143,100
-225.301941,2471.335938,-1261.472412,212,187,151
-212.005402,2473.413818,-1262.758911,90,86,77
-199.108978,2480.806152,-1266.683105,84,82,86
-186.292511,2490.344727,-1271.674072,30,33,37
-173.509720,2501.862305,-1277.649414,35,38,42
-160.590057,2513.158203,-1283.517090,23,21,27
-147.555176,2524.545898,-1289.432373,49,54,55
-134.018936,2528.627197,-1291.720703,58,61,63
-120.267311,2528.987549,-1292.161133,48,53,55
-106.431801,2527.353027,-1291.609985,51,56,59
-92.746689,2529.373047,-1292.874878,56,61,62
-78.932396,2527.782227,-1292.345215,46,51,52
-65.180191,2527.907715,-1292.668457,48,52,54
-51.430153,2528.105713,-1293.028076,49,54,55
-37.680161,2528.308105,-1293.389526,49,54,55
-23.914480,2526.698975,-1292.849854,48,52,54
-10.179928,2528.699707,-1294.106201,47,52,53
3.557685,2523.255127,-1291.656738,46,51,52
17.276249,2523.320801,-1291.949951,45,50,52
30.896463,2515.956543,-1288.542725,45,50,51
44.361359,2504.614258,-1283.152710,3,3,6
57.568115,2487.692627,-1274.980469,7,6,5
70.446564,2465.887451,-1264.371216,1,0,1
83.259705,2449.062500,-1256.239746,3,4,5
96.122528,2438.067627,-1251.011230,2,1,4
109.029816,2430.708252,-1247.592896,8,5,5
121.955078,2425.300781,-1245.146606,63,48,29
134.922302,2421.716309,-1243.608398,201,180,142
148.542587,2429.368408,-1247.675659,44,33,16
163.985291,2462.955811,-1264.686646,68,65,62
180.624512,2508.055664,-1287.450562,123,124,121
196.678223,2539.418457,-1303.366089,178,184,184
210.003632,2534.016602,-1300.929932,183,190,189
223.420105,2530.322021,-1299.345459,178,184,185
236.995102,2528.756836,-1298.824097,183,190,189
250.539093,2527.071777,-1298.242188,194,201,200
264.062561,2525.384766,-1297.659058,175,181,180
277.565613,2523.696777,-1297.075317,165,170,169
291.048309,2522.008545,-1296.490723,193,200,199
304.519104,2520.390625,-1295.940796,196,204,202
318.190887,2520.514648,-1296.261963,180,185,184
331.622528,2518.824951,-1295.675781,170,175,176
345.033905,2517.135986,-1295.089355,189,195,194
358.680908,2517.239502,-1295.399902,202,208,205
372.074646,2515.640381,-1294.858154,189,195,196
385.145599,2512.065674,-1293.326660,201,207,206
398.475494,2510.375732,-1292.738281,175,180,181
412.094757,2510.570068,-1293.093384,173,178,177
425.394043,2508.879395,-1292.504150,178,183,183
438.673920,2507.193604,-1291.916992,185,191,190
451.932495,2505.502197,-1291.326660,159,164,166
465.501953,2505.592285,-1291.629028,182,189,188
478.388641,2502.119141,-1290.144653,164,169,169
491.605988,2500.528320,-1289.603760,186,193,192
504.382202,2496.848877,-1288.014648,179,187,185
517.528687,2495.156006,-1287.421509,200,207,206
530.654907,2493.462891,-1286.827759,174,180,179
543.760681,2491.769287,-1286.233276,182,187,186
556.846130,2490.075684,-1285.638550,197,203,201
569.911194,2488.381592,-1285.043213,188,196,193
582.954407,2486.681152,-1284.444336,185,190,189
595.978821,2484.986572,-1283.847778,155,159,161
609.008728,2483.398438,-1283.304688,169,174,173
621.965942,2481.595703,-1282.653320,185,190,189
634.476013,2478.129639,-1281.165283,181,186,185
647.409302,2476.433838,-1280.566528,177,182,182
660.794189,2476.508301,-1280.857544,159,164,163
673.696167,2474.811523,-1280.257690,178,183,180
686.579834,2473.122314,-1279.661377,185,190,189
699.441284,2471.425537,-1279.060913,173,178,177
712.282166,2469.728271,-1278.459473,182,187,185
724.594971,2466.300537,-1276.987061,152,157,156
737.389954,2464.616455,-1276.391602,179,184,183
749.579529,2461.008545,-1274.827148,170,176,173
761.200806,2455.697266,-1272.403809,172,177,174
774.495483,2455.885986,-1272.749878,181,186,183
785.921021,2450.239746,-1270.156372,175,179,176
797.345154,2444.781494,-1267.656372,141,144,142
811.337036,2447.262451,-1269.156616,163,167,164
821.335876,2437.801758,-1264.637329,189,193,187
837.896973,2447.842285,-1269.949097,170,176,171
831.899536,2392.602295,-1242.339600,157,160,160
357.171539,1009.493225,-544.895447,8,9,12
358.672241,998.419800,-539.412170,0,1,2
362.629211,994.437195,-537.504883,5,6,9
366.262909,989.695740,-535.213745,20,22,27
370.934509,987.867676,-534.392517,35,37,42
375.230530,985.103394,-533.098083,1,3,10
379.133057,981.395203,-531.326416,9,10,16
383.363525,978.631836,-530.031189,20,20,27
387.937653,976.814514,-529.213440,5,4,12
392.479584,974.967407,-528.380188,41,43,51
397.397980,974.097961,-528.040710,48,50,58
402.695374,974.174255,-528.179199,56,57,65
407.992157,974.248901,-528.316833,35,36,49
413.275696,974.292297,-528.438599,8,7,16
418.572693,974.367920,-528.576843,59,59,66
423.869232,974.442627,-528.714478,11,9,17
429.166687,974.519165,-528.853088,36,37,44
434.463135,974.593750,-528.990662,18,22,30
439.350464,973.756775,-528.666870,6,9,15
444.626862,973.797974,-528.787415,6,6,7
449.501740,972.966187,-528.465942,2,2,8
454.349792,972.097717,-528.125610,1,1,6
459.187592,971.228821,-527.784912,9,9,16
464.442963,971.259033,-527.899597,38,42,46
469.264069,970.387390,-527.557251,29,31,39
474.074799,969.515320,-527.214478,2,2,5
478.875519,968.643433,-526.871521,-1,0,3
483.195221,966.824036,-526.047913,24,28,34
487.972168,965.955322,-525.706116,0,0,7
492.735443,965.079224,-525.360474,-1,-1,6
497.492371,964.210754,-525.018372,2,0,9
502.237274,963.338196,-524.674133,31,37,42
507.003540,962.526123,-524.360291,36,40,46
511.728394,961.653442,-524.015564,1,2,7
516.914673,961.663208,-524.118774,0,0,5
521.625061,960.792419,-523.774719,1,-1,3
526.582214,960.393005,-523.670044,22,22,30
531.810974,960.496277,-523.820557,9,10,16
537.269653,961.012512,-524.181091,3,5,12
542.449646,961.023682,-524.284912,5,5,14
547.397461,960.626282,-524.181030,8,6,14
552.915039,961.234192,-524.588257,11,11,19
557.832581,960.792419,-524.461609,27,23,36
563.252441,961.222473,-524.778564,38,38,45
567.899170,960.330750,-524.422852,71,71,78
575.774963,964.901306,-526.847229,69,73,78
581.270264,965.413330,-527.206360,61,64,70
-1679.384888,2564.861328,-1295.077026,139,135,129
-1663.570923,2562.380127,-1294.126709,138,133,128
-1649.329346,2562.308105,-1294.359375,125,122,118
-1635.495239,2562.872559,-1294.905029,121,118,116
-1620.265259,2561.226807,-1294.364380,128,126,123
-1603.881470,2557.698975,-1292.898071,125,122,120
-1588.754028,2556.135742,-1292.396729,136,133,131
-1574.727661,2556.337158,-1292.763184,141,138,136
-1560.631958,2556.424316,-1293.073486,143,140,136
-1545.487549,2554.767822,-1292.525635,142,140,136
-1531.539429,2555.082275,-1292.947510,136,134,130
-1517.455322,2555.168945,-1293.256836,146,143,139
-1502.348145,2553.505859,-1292.705322,151,151,146
-1488.342529,2553.706299,-1293.070923,136,136,132
-1473.265869,2552.042969,-1292.518311,135,135,130
-1459.269897,2552.242432,-1292.883179,136,134,130
-1444.223633,2550.578125,-1292.329712,149,149,144
-1430.237671,2550.777588,-1292.694336,133,133,128
-1416.196411,2550.877441,-1293.009644,141,140,135
-1401.243408,2549.307129,-1292.501709,141,141,136
-1386.261230,2547.646973,-1291.948975,140,140,135
-1372.292847,2547.841309,-1292.310791,149,149,144
-1357.341064,2546.180664,-1291.757324,143,143,138
-1343.338745,2546.290283,-1292.077148,152,152,147
-1328.462158,2544.714355,-1291.564819,150,150,145
-1314.471924,2544.825684,-1291.885132,149,149,144
-1299.623413,2543.247070,-1291.370850,147,147,142
-1285.646240,2543.361816,-1291.692871,154,154,149
-1271.709839,2543.556885,-1292.054199,149,149,144
-1256.898193,2541.972656,-1291.536743,163,162,158
-1242.932373,2542.086670,-1291.857788,150,149,147
-1228.109985,2540.417480,-1291.297607,154,156,150
-1213.308838,2538.750244,-1290.737915,153,155,149
-1198.569092,2537.169434,-1290.220581,139,138,136
-1183.807495,2535.500244,-1289.659424,150,152,147
-1169.880371,2535.604492,-1289.974854,150,152,146
-1155.993652,2535.795654,-1290.333252,141,143,137
-1141.272583,2534.123779,-1289.769897,143,143,138
-1127.397827,2534.318115,-1290.130005,146,148,142
-1112.706665,2532.644287,-1289.564819,151,153,149
-1098.841919,2532.838379,-1289.924438,131,130,130
-1084.227417,2531.271729,-1289.411987,158,160,156
-1070.325928,2531.355469,-1289.716675,151,152,149
-1056.469482,2531.544189,-1290.073364,143,145,141
-1041.855103,2529.882080,-1289.512817,145,147,143
-1027.303467,2528.324951,-1289.004028,147,149,145
-1013.426208,2528.411133,-1289.309326,155,157,151
-999.593262,2528.607422,-1289.669556,162,162,155
-985.713074,2528.681641,-1289.969238,162,160,152
-971.880432,2528.876953,-1290.328613,150,148,140
-957.390747,2527.327637,-1289.822510,153,151,144
-943.527527,2527.414307,-1290.128052,161,159,153
-929.066467,2525.863037,-1289.620239,158,157,149
-915.252563,2526.054932,-1289.977905,127,125,119
-901.440918,2526.253418,-1290.338745,156,154,148
-887.627136,2526.445557,-1290.696655,160,158,150
-873.778809,2526.537354,-1291.004272,157,156,147
-859.968445,2526.737793,-1291.366089,159,157,149
-846.121460,2526.828613,-1291.673340,164,162,154
-831.736267,2525.271240,-1291.161133,163,161,153
-817.337830,2523.613281,-1290.598633,160,158,150
-803.549438,2523.819092,-1290.962646,154,151,143
-789.761169,2524.026123,-1291.327515,155,153,145
-775.973145,2524.233887,-1291.692505,155,152,145
-762.161194,2524.362549,-1292.018066,162,161,152
-747.844299,2522.773438,-1291.488770,137,135,129
-734.043762,2522.904053,-1291.815186,157,156,149
-720.264832,2523.107910,-1292.178101,159,157,151
-706.484985,2523.309082,-1292.539551,155,153,146
-692.197021,2521.646973,-1291.972900,167,165,158
-678.426636,2521.845459,-1292.332886,154,152,146
-664.654785,2522.038818,-1292.690552,168,166,160
-650.404114,2520.363525,-1292.116333,162,160,154
-636.641907,2520.554443,-1292.472412,163,161,155
-622.437073,2518.940918,-1291.928467,180,178,172
-608.685120,2519.133057,-1292.285034,167,164,159
-594.495300,2517.457031,-1291.709351,144,142,138
-580.753418,2517.647949,-1292.065308,168,169,162
-566.594910,2515.974854,-1291.490479,146,144,140
-552.864807,2516.172852,-1291.849487,162,162,157
-539.134094,2516.367676,-1292.207031,159,158,156
-525.030273,2514.761963,-1291.665039,153,152,150
-511.309082,2514.955566,-1292.021606,146,147,144
-497.588379,2515.151611,-1292.379639,154,155,154
-483.510529,2513.475830,-1291.802002,151,153,151
-469.800629,2513.675293,-1292.161499,162,163,162
-456.078339,2513.805908,-1292.486450,158,159,158
-442.368958,2514.005859,-1292.846191,145,146,145
-428.659912,2514.208984,-1293.207153,141,143,141
-414.652954,2512.590820,-1292.657349,148,150,146
-400.952454,2512.786133,-1293.014526,153,154,151
-387.251740,2512.979736,-1293.370728,142,143,142
-373.550659,2513.170898,-1293.725830,147,149,147
-359.850006,2513.364502,-1294.082153,168,169,166
-346.148804,2513.554199,-1294.436279,135,134,131
-332.447021,2513.738770,-1294.788086,162,162,157
-318.756500,2514.012939,-1295.184814,105,104,97
-304.582153,2510.263916,-1293.565430,35,28,21
-290.033325,2502.873535,-1290.119995,84,68,49
-274.780396,2488.279297,-1283.061646,162,135,99
-259.274170,2469.694336,-1273.999390,191,161,120
-244.516785,2456.649170,-1267.711426,239,215,166
-231.305862,2458.704590,-1268.995605,104,98,83
-218.242615,2462.680664,-1271.243774,73,73,74
-204.989395,2464.841064,-1272.581787,133,130,131
-192.139465,2472.547607,-1276.703735,35,33,40
-179.742630,2487.768555,-1284.600098,23,25,33
-166.674835,2495.264648,-1288.620117,4,6,15
-153.429352,2501.128418,-1291.822144,42,47,50
-140.004684,2504.848389,-1293.948486,56,60,64
-126.370834,2505.111816,-1294.338623,49,53,57
-112.657799,2503.593018,-1293.833008,49,54,55
-99.096092,2505.513916,-1295.056274,46,50,53
-85.399818,2503.941895,-1294.523438,58,62,66
-71.771980,2504.145508,-1294.883545,71,75,79
-58.142418,2504.277344,-1295.207397,50,54,58
-44.514736,2504.479736,-1295.566772,49,53,57
-30.866213,2502.873047,-1295.015869,48,52,56
-17.248531,2503.136230,-1295.405518,49,54,57
-3.630008,2503.247314,-1295.718628,52,57,58
9.978811,2501.520752,-1295.106812,48,53,54
23.567423,2499.854736,-1294.524658,45,49,51
37.130547,2497.846680,-1293.770020,45,50,53
50.596294,2492.349854,-1291.257324,10,11,10
63.408813,2464.492676,-1277.476929,10,10,11
76.227959,2446.373535,-1268.598022,-1,0,1
89.044266,2433.495605,-1262.357666,16,14,16
101.937210,2425.725342,-1258.689941,150,130,98
114.763184,2418.349365,-1255.219238,199,169,120
127.811447,2416.659912,-1254.615356,239,207,153
140.709778,2412.770508,-1252.901245,231,198,146
154.105347,2417.294678,-1255.431519,213,183,140
168.822021,2440.083984,-1267.181152,240,215,176
185.076004,2480.072998,-1287.618042,195,197,195
200.657547,2506.374023,-1301.151855,184,189,189
214.265564,2506.438965,-1301.441650,167,172,173
227.553864,2503.020020,-1299.971680,171,177,178
240.970291,2501.328857,-1299.373779,183,188,189
254.367020,2499.644287,-1298.778809,168,171,173
267.743011,2497.955566,-1298.181396,187,192,191
281.311096,2498.146484,-1298.533936,194,199,198
294.656799,2496.459961,-1297.936890,184,191,190
308.214661,2496.650635,-1298.289185,189,196,195
321.286072,2493.077148,-1296.737305,197,202,202
334.582184,2491.474609,-1296.181641,167,172,173
348.097870,2491.579346,-1296.489990,178,183,183
361.338348,2489.797852,-1295.843140,204,209,206
374.585663,2488.202637,-1295.290527,182,187,187
387.798615,2486.511475,-1294.688843,175,180,179
401.294800,2486.698975,-1295.037964,198,203,202
414.477203,2485.007080,-1294.435547,190,195,194
427.640198,2483.321045,-1293.835327,171,176,178
440.780945,2481.623291,-1293.228882,178,184,184
453.902191,2479.930908,-1292.625000,204,212,210
467.004211,2478.244141,-1292.023315,179,184,183
480.084778,2476.551025,-1291.418457,181,186,185
493.144989,2474.857910,-1290.812622,172,179,178
506.183441,2473.157471,-1290.202881,183,188,187
519.179871,2471.354248,-1289.540771,160,163,163
531.797241,2467.891357,-1288.036133,189,194,194
544.765747,2466.197021,-1287.427979,190,195,195
557.287354,2462.616699,-1285.862305,185,190,189
570.203491,2460.915283,-1285.250000,181,186,185
583.125854,2459.325439,-1284.693848,178,186,184
596.005127,2457.637451,-1284.087280,169,174,173
609.301270,2457.713379,-1284.376709,184,189,189
622.147522,2456.017090,-1283.765381,179,184,182
634.973328,2454.320312,-1283.153687,204,210,207
647.312073,2450.854736,-1281.642334,183,188,186
660.565979,2450.933594,-1281.932373,165,170,169
672.812378,2447.349365,-1280.359253,204,210,207
685.583252,2445.781494,-1279.811646,207,213,208
698.257080,2443.940918,-1279.124512,212,218,214
710.994751,2442.394287,-1278.586670,175,180,180
723.672485,2440.709229,-1277.977661,182,187,186
735.759216,2437.129883,-1276.404419,177,182,181
748.378357,2435.418213,-1275.781006,197,203,200
759.801880,2429.942871,-1273.240723,156,159,159
773.564026,2432.020996,-1274.546875,174,179,177
784.347534,2424.815430,-1271.123169,169,175,172
797.462097,2424.949951,-1271.438721,174,177,175
806.356079,2412.441162,-1265.310303,189,193,187
819.259644,2412.156738,-1265.410889,179,183,179
817.882996,2370.437988,-1244.384399,170,172,168
351.659607,1001.466980,-546.463074,5,2,9
355.380463,996.673401,-544.120361,6,7,9
360.177582,995.009094,-543.373230,0,1,2
363.119415,988.326721,-540.065063,6,6,11
367.065826,984.544678,-538.235779,16,19,19
370.639343,979.882812,-535.956543,8,10,18
374.887939,977.120544,-534.646362,6,5,14
379.093353,974.325684,-533.318909,8,7,15
383.652924,972.510437,-532.491333,0,-1,8
388.555969,971.609009,-532.130127,33,33,40
393.461334,970.739197,-531.785034,23,25,33
398.369934,969.902039,-531.456299,45,45,54
403.646515,969.976868,-531.593689,57,62,67
408.923370,970.052368,-531.731323,24,24,36
414.587158,971.038452,-532.334717,10,7,15
419.855560,971.083008,-532.456665,22,23,31
425.150604,971.189392,-532.610229,33,34,41
430.432251,971.264709,-532.747925,36,40,48
435.306274,970.426758,-532.418213,4,9,14
440.995422,971.415100,-533.023193,1,1,4
445.861847,970.581848,-532.695679,3,3,6
451.121155,970.619324,-532.813904,1,2,5
455.974518,969.789734,-532.487976,8,8,13
460.778595,968.876526,-532.119019,-1,1,5
465.592194,968.005188,-531.771423,12,14,20
470.395447,967.133545,-531.423340,37,40,44
475.190216,966.265259,-531.076843,6,10,18
480.001190,965.449890,-530.757263,-1,0,1
484.744324,964.518005,-530.377808,4,3,4
489.506927,963.645813,-530.028687,1,1,4
494.292358,962.838501,-529.712646,6,6,11
499.035217,961.966431,-529.363403,32,36,44
503.768158,961.095032,-529.014099,0,-1,5
507.991791,959.275513,-528.177979,14,18,25
512.697937,958.401184,-527.826782,62,68,69
517.631897,957.969727,-527.702820,13,18,21
522.577942,957.570496,-527.595276,40,44,48
527.762207,957.615356,-527.715820,16,14,20
532.717468,957.246948,-527.623962,2,2,5
538.161011,957.761047,-527.985596,6,8,13
543.076111,957.329773,-527.861267,5,7,13
548.005432,956.932800,-527.754578,18,23,26
552.922485,956.523315,-527.641357,23,28,31
558.652710,957.524963,-528.253845,5,9,15
563.316223,956.687012,-527.920166,7,6,15
568.567505,956.860779,-528.106812,38,35,44
574.785034,958.654602,-529.127258,32,32,39
-1652.847534,2533.187988,-1294.106323,136,132,127
-1638.935059,2533.389404,-1294.470459,142,140,136
-1625.166992,2533.816895,-1294.947144,68,60,62
-1611.149536,2533.854492,-1295.229980,132,129,127
-1597.232544,2534.049072,-1295.590820,140,137,135
-1581.002808,2530.523438,-1294.101562,142,140,137
-1567.107788,2530.720459,-1294.463135,144,141,139
-1553.212158,2530.916504,-1294.824341,146,143,139
-1538.190186,2529.250977,-1294.259033,134,132,128
-1524.306030,2529.448975,-1294.621094,142,140,136
-1510.422852,2529.647949,-1294.983643,146,143,139
-1496.472656,2529.733887,-1295.289673,151,149,144
-1481.570190,2528.183838,-1294.781128,148,148,143
-1467.696411,2528.382080,-1295.142822,159,159,154
-1452.756958,2526.717285,-1294.576416,142,142,137
-1438.835693,2526.812988,-1294.887207,142,140,136
-1423.984131,2525.249268,-1294.370239,148,147,142
-1410.071655,2525.340820,-1294.678833,145,145,140
-1395.249390,2523.775635,-1294.160889,148,148,143
-1380.394043,2522.114502,-1293.594849,156,155,150
-1366.558472,2522.307129,-1293.953003,147,147,142
-1351.734009,2520.645996,-1293.386597,139,138,135
-1337.908936,2520.839355,-1293.744873,146,146,141
-1324.039917,2520.948730,-1294.061279,159,159,154
-1309.254883,2519.283447,-1293.491943,187,188,181
-1294.535400,2517.706787,-1292.966187,153,153,150
-1280.690063,2517.819336,-1293.283936,146,145,143
-1265.996948,2516.235596,-1292.754150,149,149,145
-1252.161255,2516.345215,-1293.070190,156,158,152
-1237.499268,2514.764160,-1292.541138,139,140,136
-1222.814087,2513.094971,-1291.967773,161,162,156
-1209.001099,2513.206055,-1292.284180,152,152,145
-1194.387207,2511.621338,-1291.752319,168,170,162
-1180.582520,2511.726318,-1292.065674,127,129,123
-1166.820435,2511.920410,-1292.423218,145,147,143
